-0.249687 1.423821 -0.705724 
-0.409809 1.450152 -0.214615 
0.414060 1.104265 -0.739767 
0.454448 0.676637 0.055818 
-0.409041 1.769837 -0.652870 
-0.322153 0.590400 -0.738232 
-0.361782 1.176438 -0.704942 
0.312599 0.214648 0.257976 
0.294156 1.122385 -0.705740 
0.203207 0.823564 0.412388 
0.153657 1.732688 0.546407 
-0.243597 0.826133 0.025372 
0.273164 1.873951 -0.767124 
0.415430 1.178339 0.150090 
0.187991 0.388117 0.555458 
-0.181077 0.825797 -0.332403 
0.338993 0.001783 0.003767 
0.455288 0.416962 -0.630606 
0.377713 0.138629 -0.721547 
0.001867 1.909462 -0.148143 
0.432332 0.214887 0.095208 
-0.042244 1.909441 -0.365263 
0.246960 1.653362 0.403846 
-0.373516 0.115892 -0.671872 
0.422259 1.783716 0.125492 
-0.013265 0.136856 -0.539473 
0.445840 0.246227 0.065452 
0.297612 0.137096 -0.195613 
0.386041 1.803075 -0.108185 
-0.037102 1.758728 -0.704566 
-0.432396 1.402512 0.068258 
0.442610 1.866255 -0.748510 
-0.058277 0.199746 -0.209251 
0.456583 0.372142 0.114981 
0.173515 1.358077 -0.562362 
0.136976 1.850101 -0.766209 
0.045541 0.890423 -0.738251 
0.409414 1.510341 -0.353649 
-0.342227 1.327574 -0.705244 
0.016287 1.818629 0.649702 
-0.128252 0.825796 -0.153420 
0.047135 1.124002 0.473962 
-0.388652 1.792531 0.065424 
0.293543 0.200346 -0.642019 
0.386449 0.234765 -0.362363 
0.097611 1.457975 0.666710 
0.383802 0.365826 0.026813 
0.255303 0.202369 -0.703828 
0.322176 1.750999 0.174552 
-0.387418 1.792771 -0.431733 
-0.381468 0.199330 -0.755756 
0.239163 0.539727 0.342548 
0.417576 1.714574 -0.761454 
-0.373937 0.077282 -0.670984 
0.453503 1.576224 0.010910 
-0.220961 1.364958 -0.392720 
-0.315002 0.200403 -0.591562 
-0.382624 0.826002 0.014324 
0.451802 0.263308 0.119342 
0.379806 1.357761 -0.694305 
-0.019060 1.104499 0.605680 
0.218785 0.818245 -0.023150 
0.162116 1.131177 0.413233 
0.158245 0.976080 0.439444 
0.177587 0.818454 -0.447604 
0.233034 0.143525 0.051630 
0.104616 1.364885 -0.090041 
-0.100873 0.199731 -0.118894 
-0.258610 1.837782 -0.678557 
-0.455105 1.605627 -0.027682 
0.150455 0.506242 0.714472 
0.449528 1.758399 -0.632192 
0.028615 0.199761 -0.124545 
0.021559 0.562469 0.572495 
0.151457 0.230633 0.479418 
0.292667 0.510062 -0.707829 
-0.396018 0.241346 -0.200899 
-0.173029 0.825767 -0.153030 
0.459139 0.632444 -0.286610 
0.224963 1.862950 0.067724 
0.377634 1.907113 -0.456379 
0.388709 1.357869 -0.347232 
-0.168178 1.567378 -0.705870 
-0.197202 0.300332 -0.710556 
-0.346127 0.825835 -0.624512 
0.330226 1.906585 0.237431 
0.404689 0.268682 0.074589 
-0.340263 0.078117 -0.678344 
0.059037 0.657450 0.622973 
0.316293 0.753076 0.226709 
0.460492 0.934014 -0.553656 
-0.410301 1.165308 -0.113957 
0.409263 0.340127 -0.321864 
-0.168013 1.453412 -0.705734 
-0.042501 1.902312 0.044977 
-0.459161 0.771084 0.033568 
0.076832 0.449647 0.585297 
0.042328 1.032144 0.727258 
-0.414235 0.138228 -0.226102 
-0.392951 1.357814 -0.683495 
0.296021 1.837061 -0.462429 
-0.011186 0.380323 0.620400 
0.427409 0.793583 0.069385 
0.092917 1.367124 0.649481 
-0.314061 0.136650 -0.565412 
0.371098 0.201484 -0.615495 
-0.040862 1.837031 -0.426257 
-0.106859 0.203692 -0.708617 
0.409365 0.736110 -0.265143 
-0.386450 0.210877 -0.588636 
0.457769 0.847983 -0.723058 
-0.397091 0.241325 -0.550515 
-0.460449 0.594611 -0.402951 
-0.410027 0.546449 -0.236524 
-0.455323 1.485111 0.037250 
-0.452582 1.721166 0.011843 
0.152037 1.517701 0.443518 
0.320161 0.896844 0.287699 
0.409331 0.559744 -0.407090 
0.046306 1.908794 -0.620436 
0.223152 1.908680 -0.497187 
0.132289 1.368913 -0.571981 
-0.457215 0.440854 0.010874 
0.321549 0.632894 -0.738265 
0.396421 0.252888 0.088343 
0.346577 1.175345 0.257046 
-0.346622 0.490799 -0.707595 
-0.378018 1.836818 -0.059819 
0.321992 1.104774 -0.738264 
-0.238020 1.365058 -0.216758 
0.000952 0.825886 -0.289060 
-0.407616 1.440284 -0.699953 
-0.016370 0.137069 -0.320124 
-0.026412 0.469763 0.601891 
0.314588 0.382466 0.086277 
-0.229239 0.187033 -0.767230 
0.453491 1.488935 0.037240 
0.395768 0.825904 -0.668693 
0.409595 1.076710 -0.517385 
0.338366 0.136912 -0.554066 
0.109457 0.760606 0.659568 
0.133424 1.206316 0.587580 
0.082235 1.790622 0.547078 
0.063434 0.332254 0.407001 
0.228384 0.323301 0.202994 
-0.382508 1.358070 -0.591475 
0.407664 1.870198 0.141570 
0.253862 0.385390 0.161837 
-0.335936 0.183725 0.067863 
-0.328327 1.800333 -0.702748 
0.440509 1.786388 0.065308 
0.227807 1.874718 -0.767107 
0.389205 1.659526 0.009986 
-0.283569 0.229580 -0.710963 
0.460540 0.933943 -0.375364 
0.343758 1.027700 0.151536 
0.367300 0.417861 -0.738190 
-0.290341 0.134764 -0.655078 
-0.225466 1.888095 -0.760917 
0.140691 0.544432 0.724229 
-0.328244 0.200231 -0.074127 
-0.409667 1.828111 0.067799 
-0.386556 0.233464 0.031333 
-0.458078 0.719481 -0.747313 
0.458563 0.589644 -0.242598 
0.127998 1.847805 0.474644 
-0.387551 0.826153 -0.332717 
0.181367 0.286434 0.353212 
-0.271323 0.199676 -0.748038 
0.137999 1.449838 -0.738152 
0.158223 0.633919 -0.706754 
-0.410115 0.967774 -0.333463 
0.057116 1.003661 0.704220 
0.176875 0.818348 -0.064419 
0.447522 0.219022 0.104634 
0.276198 0.315415 0.416039 
0.083683 1.322394 -0.705877 
0.372263 0.825966 0.042635 
0.318144 0.503532 0.113523 
-0.410148 0.761443 -0.502046 
0.408963 0.286946 -0.236168 
0.377861 1.907123 -0.195032 
-0.030455 1.100754 0.735670 
0.102697 0.590833 0.679349 
0.358763 0.496645 0.056107 
0.112576 1.008726 0.508172 
-0.322044 1.146996 -0.738237 
0.213858 1.139293 0.345270 
0.456826 0.505537 -0.027235 
0.396460 0.598261 -0.705490 
-0.057837 0.137020 -0.409840 
-0.450054 1.817852 -0.583805 
-0.098846 0.146760 -0.754022 
0.295647 0.818359 -0.534972 
-0.395705 0.024242 -0.042222 
0.384470 1.620622 0.081072 
0.198839 0.785104 0.410056 
0.183221 1.752354 -0.738041 
0.324378 1.837263 -0.035436 
-0.386819 0.208779 -0.073562 
-0.409639 1.724281 -0.057915 
0.388795 1.179409 0.081435 
0.340054 1.106578 0.128051 
0.137029 0.309705 0.324602 
-0.225014 1.899333 -0.750388 
-0.459870 0.606677 -0.028525 
0.072224 0.820381 0.689431 
-0.349898 1.837528 0.013258 
0.206236 0.911638 0.367301 
0.069094 1.064669 0.570273 
0.381819 0.027235 -0.059586 
-0.306996 1.358106 -0.382813 
0.035027 1.475034 0.625927 
-0.298181 0.825971 -0.072839 
-0.461412 1.052049 -0.097593 
0.455851 0.233546 0.097893 
0.039159 1.120591 0.605825 
-0.057905 0.200151 0.028868 
0.302331 0.818196 -0.661905 
0.188063 0.475513 0.419551 
-0.433424 1.131871 0.068379 
-0.002421 1.514707 0.760343 
0.182975 1.795067 -0.738140 
0.455370 1.450820 -0.595660 
-0.409525 0.440343 -0.650803 
-0.347613 1.837326 -0.004967 
0.408311 1.682649 0.050970 
0.409501 1.076560 -0.558797 
-0.358021 0.195645 0.066835 
0.373594 1.357424 -0.015359 
0.275029 0.547112 -0.738124 
0.178201 1.909070 -0.366923 
0.418758 1.897349 0.051098 
0.130040 1.166478 0.638792 
-0.410070 0.800693 -0.234723 
-0.418148 1.488332 -0.753938 
-0.023989 1.641970 0.716822 
0.460517 0.847611 -0.634063 
-0.092691 0.718915 -0.738222 
-0.322066 1.104290 -0.738253 
-0.368349 1.297365 -0.704846 
-0.453632 0.251519 -0.485766 
0.409329 1.446841 -0.438117 
0.018162 0.941656 0.757250 
0.409331 1.326612 -0.595740 
-0.410615 0.910594 0.055317 
0.457811 1.191544 -0.464863 
-0.251956 0.136963 -0.577470 
0.017034 0.482210 0.565759 
0.171131 0.287826 0.302593 
-0.072975 0.404370 0.528296 
0.269226 0.825948 -0.075884 
-0.213778 1.364975 -0.347348 
0.305831 0.137532 -0.697010 
-0.453995 0.719453 -0.760293 
0.055036 0.818342 -0.149884 
0.445151 0.168955 -0.329946 
-0.408009 0.756141 0.000287 
-0.430666 0.933244 -0.767292 
-0.419623 1.445209 -0.763996 
0.378106 0.836139 -0.703900 
-0.393152 1.906886 -0.408312 
0.426782 0.142428 -0.285870 
0.379098 0.201867 -0.105700 
0.332554 0.317426 -0.709670 
-0.240473 0.137009 -0.642640 
-0.021982 0.361697 0.533850 
0.423997 0.896313 0.127275 
0.233027 1.711893 -0.704835 
0.062768 1.130771 0.407131 
0.373652 1.836658 -0.280059 
0.340326 0.335675 0.048120 
0.409059 1.269850 -0.664343 
0.407376 0.176513 -0.767468 
0.408893 0.684851 -0.674559 
-0.364080 1.836819 -0.474088 
0.048909 0.762150 0.744864 
-0.027680 0.818268 -0.067957 
0.267799 0.136621 -0.058002 
-0.409879 0.875539 -0.019700 
-0.450713 1.804569 -0.061499 
0.010269 1.361097 0.057304 
-0.342375 1.351906 -0.705174 
-0.042288 1.838071 0.026748 
0.153935 0.200071 0.042774 
0.364948 1.837661 -0.659362 
0.071177 1.073766 0.478012 
0.457876 1.018141 -0.692092 
-0.409761 1.317816 -0.650243 
0.307006 1.908077 -0.237777 
-0.218876 1.837050 -0.558829 
-0.409968 0.522989 -0.553324 
0.223152 0.137033 -0.281122 
0.446064 1.532161 0.083266 
0.207909 0.254635 0.516959 
0.112082 0.306413 0.335298 
-0.046136 1.104832 -0.738187 
0.309005 0.287352 0.126035 
0.407732 0.264574 0.032041 
0.440963 0.805055 -0.766867 
0.441914 0.885376 0.094914 
-0.462631 0.805555 -0.361196 
-0.359253 1.843577 -0.753896 
0.242657 1.368920 -0.453902 
0.141831 1.835311 -0.701138 
-0.284833 0.298539 -0.710398 
-0.150650 0.136993 -0.649562 
0.067050 0.137049 -0.055373 
0.142364 1.779029 -0.704214 
-0.409173 0.271019 0.015868 
-0.450053 1.746698 -0.732558 
-0.420058 1.862886 0.068008 
0.409853 0.138279 -0.373914 
0.347900 0.507114 0.163033 
-0.408105 0.246565 -0.156762 
0.031055 1.123797 0.413123 
0.453534 1.278560 -0.751367 
0.160580 0.551836 0.596807 
0.409060 0.272445 -0.364594 
0.295668 0.425462 -0.708727 
-0.409282 0.402600 -0.004734 
-0.373052 1.907095 -0.026953 
0.407386 0.251112 0.049451 
0.097879 1.295949 0.664760 
0.106709 1.113642 0.661176 
0.414058 0.675727 -0.739715 
0.319258 0.003603 -0.029786 
0.031619 0.275469 0.655598 
0.356697 0.426455 -0.708005 
0.211919 0.199743 -0.484942 
0.082287 1.887764 0.546070 
0.296265 1.837068 -0.372280 
0.270956 1.907616 -0.660997 
0.451432 1.626344 -0.691411 
0.058697 1.644682 0.586616 
0.380378 0.048687 -0.595477 
0.051327 1.640140 0.706138 
-0.132546 1.902637 0.044388 
0.451996 0.289539 0.029981 
0.039097 0.137571 -0.707181 
0.182150 1.888113 -0.760948 
-0.018400 0.922281 0.745970 
0.453940 1.577299 -0.112235 
-0.368101 0.933279 -0.738309 
-0.003171 1.118911 0.475160 
-0.409609 1.382848 -0.437143 
0.161720 0.444122 0.459137 
0.372616 1.902022 0.044222 
0.348169 1.907499 -0.026419 
-0.409747 1.346517 -0.667827 
0.412660 0.826391 0.133634 
-0.014575 0.199745 -0.300020 
0.409026 0.273976 -0.497061 
0.372119 0.826042 -0.296658 
0.353141 1.205757 -0.705000 
0.449269 1.793953 -0.503386 
-0.445936 0.182699 -0.755032 
0.410281 0.787732 0.085050 
0.136914 0.633020 -0.738209 
-0.087517 1.893863 0.057725 
-0.220682 1.364041 0.046954 
-0.409459 0.922101 -0.683987 
0.409619 1.162314 -0.389603 
0.098066 1.464195 0.678549 
-0.017072 1.820912 0.702854 
-0.053286 0.139983 -0.740392 
-0.229885 0.332405 -0.738023 
-0.364459 1.861191 0.067962 
0.132329 1.085177 0.335732 
0.408753 0.916131 -0.683474 
0.163368 0.199762 -0.307546 
0.225784 0.826097 -0.001631 
0.382134 1.837672 0.056064 
-0.401956 0.137883 -0.561154 
0.337398 0.009914 -0.669875 
0.178578 0.352921 0.253248 
-0.456315 1.231367 -0.749465 
-0.231883 0.825942 -0.667522 
0.452489 1.626179 -0.633848 
-0.457155 1.401419 -0.626398 
-0.272139 0.199847 -0.159388 
0.339880 0.477289 0.157623 
-0.368042 1.189468 -0.738287 
-0.410173 1.222734 0.056173 
-0.422253 1.177218 0.068016 
0.316713 0.007812 -0.650329 
-0.014549 0.199753 -0.210979 
0.406504 0.828540 -0.471422 
-0.459783 1.181362 -0.097219 
0.328465 0.410951 0.083758 
-0.409323 1.435371 0.011391 
0.110886 1.022459 0.635192 
-0.403276 1.555497 0.001943 
-0.408998 0.401540 0.053972 
0.092119 1.365112 -0.257929 
0.183076 0.786795 0.548248 
0.455748 0.417178 -0.548839 
0.071498 1.048054 0.571283 
-0.409896 1.555863 -0.258017 
0.447398 1.855931 -0.153360 
0.386164 0.233569 -0.276161 
-0.230078 1.104473 -0.738223 
-0.171147 1.822555 -0.703455 
0.234009 1.130771 0.199818 
0.324771 0.281097 0.180896 
-0.371128 0.136455 -0.581570 
-0.391742 0.137937 -0.489680 
0.338181 0.394415 0.066565 
-0.150152 0.136884 -0.538298 
-0.404676 1.356641 -0.008967 
0.166896 0.199918 -0.568891 
-0.453900 0.676659 -0.759936 
0.198679 1.887711 0.365450 
0.450228 0.217753 -0.286456 
-0.179531 1.899673 -0.749719 
0.289377 0.199892 -0.356856 
0.144910 1.357428 -0.008756 
-0.224968 1.351494 -0.705703 
0.371400 1.174932 0.106987 
0.376443 1.907247 -0.369364 
-0.397466 0.921721 -0.704359 
0.343685 0.423803 0.071192 
0.126292 0.544176 0.725814 
0.212935 0.286116 0.330747 
0.267575 1.090880 0.246145 
-0.197636 0.818997 0.054691 
-0.366629 0.331035 -0.738175 
-0.342359 1.357544 -0.682021 
0.295204 0.200526 -0.693619 
0.432527 1.861348 0.103515 
-0.409828 0.740142 -0.628169 
0.407656 1.836690 0.144562 
0.091033 1.893644 0.057970 
0.091847 0.973751 0.540885 
0.083290 0.782210 0.695202 
-0.456100 0.486001 0.052950 
-0.225175 1.324786 -0.705856 
-0.091964 1.233491 -0.738199 
-0.451897 1.703370 -0.702393 
0.368016 0.890531 -0.738364 
-0.000100 1.147845 -0.738178 
0.160212 0.895862 0.439116 
0.070894 0.199848 -0.051872 
-0.385464 0.646628 0.050213 
0.455428 0.506021 0.036702 
0.180815 0.196719 -0.760803 
-0.268443 1.247869 -0.705896 
0.025714 1.119032 0.478263 
-0.331723 0.818394 -0.410138 
0.456578 0.460456 -0.505607 
0.144628 0.278545 0.474113 
0.385470 1.819596 -0.278894 
0.459926 0.761699 -0.633812 
-0.425813 0.651264 0.068356 
-0.238805 0.625148 -0.706836 
0.298411 1.036377 0.220932 
0.114008 1.136521 0.641717 
0.299446 0.943036 0.327471 
0.068757 0.872339 0.661421 
0.420906 1.903594 -0.691910 
-0.241672 0.258542 -0.710961 
0.373684 1.836664 -0.192312 
-0.002307 0.311836 0.472257 
0.291502 0.134553 -0.031809 
-0.011739 0.666857 0.744268 
0.256514 1.243928 -0.705910 
0.408698 0.268321 -0.151946 
0.409359 1.120234 -0.593969 
0.057157 0.438024 0.589592 
0.456622 1.320854 -0.509506 
0.450302 0.244959 -0.623875 
-0.409326 0.400402 -0.689753 
0.271178 1.357956 -0.174037 
-0.143255 0.143517 0.051684 
-0.305698 0.825926 -0.197766 
-0.139140 0.461382 -0.737997 
0.307660 0.826892 0.273688 
0.165783 0.199682 -0.439260 
0.261674 0.818112 0.016754 
-0.431789 1.531327 -0.767453 
-0.391061 1.357883 -0.668299 
-0.409729 1.397961 -0.391820 
-0.090948 1.664673 -0.738018 
-0.385504 1.654185 0.050887 
-0.331699 0.818396 -0.366596 
0.221440 1.860299 0.434186 
-0.457072 1.088287 0.051777 
-0.409748 0.277778 -0.155736 
0.459653 0.675358 -0.286633 
0.441419 0.331995 0.140852 
-0.414065 0.719383 -0.738515 
-0.386794 0.209227 -0.114448 
0.046146 1.909433 -0.148379 
0.242913 1.400165 -0.450002 
-0.259411 1.837455 -0.646468 
0.454953 0.460508 -0.705626 
0.114242 1.906805 0.516610 
-0.356028 0.117283 -0.680658 
0.379242 0.119530 -0.667974 
0.266383 1.265820 0.266046 
0.143232 0.357036 0.620411 
0.137414 0.804659 -0.738276 
0.046021 0.786037 0.747215 
-0.368922 0.489667 -0.707282 
0.037650 0.877813 0.717791 
0.409094 0.511344 -0.180344 
0.383156 1.906018 -0.662117 
-0.088384 1.357854 -0.300135 
0.460624 0.760978 -0.153365 
-0.272501 0.744600 -0.705650 
0.409317 1.640448 -0.094393 
0.451253 0.848053 -0.761881 
0.396212 0.243598 -0.702148 
0.176802 0.825910 -0.424149 
-0.151967 0.227736 -0.711213 
-0.409787 0.280194 -0.243154 
0.381115 0.254965 -0.709029 
0.414058 1.837665 -0.740416 
0.100478 0.818384 -0.533651 
-0.335168 0.136693 -0.693555 
0.386042 0.210430 -0.361230 
-0.267394 1.358078 -0.340097 
-0.408021 0.245081 -0.071571 
0.311875 0.288468 0.091724 
-0.035633 1.364615 0.031853 
-0.296117 1.816659 -0.702710 
0.325601 0.826052 -0.470369 
-0.370735 0.836812 -0.704251 
0.408953 1.420009 -0.025576 
0.358867 0.385936 -0.708380 
-0.336342 0.002093 -0.597613 
0.226583 0.169698 -0.767391 
0.275989 1.320746 -0.738303 
-0.409960 1.613112 -0.390520 
0.402728 1.905592 -0.662076 
0.386416 0.235231 -0.406021 
-0.409588 1.419936 -0.606911 
0.411179 0.214385 0.066432 
0.457682 0.890369 -0.723362 
0.394997 1.899985 0.083161 
0.408635 0.411041 -0.065327 
-0.367746 0.200525 -0.290391 
-0.058039 0.199747 -0.164516 
0.104459 1.236882 0.635499 
0.408516 0.832111 -0.650401 
0.053798 0.878257 0.608282 
0.407377 1.854717 0.143455 
0.403290 1.204211 -0.703721 
-0.397605 0.056259 -0.640885 
0.165949 1.367983 -0.534030 
-0.252410 0.162282 0.067100 
0.405609 0.161904 -0.766023 
-0.010301 0.473935 0.620419 
-0.261629 0.137176 -0.361235 
0.304780 0.199538 0.059808 
-0.462710 0.805158 -0.537900 
-0.374945 0.144847 0.053081 
0.369107 1.741590 0.102323 
-0.133463 1.838665 0.048873 
-0.223493 1.870377 0.067705 
0.229751 1.580204 -0.738141 
0.046426 0.305075 0.751483 
0.170989 1.268482 -0.706065 
-0.459407 0.591456 -0.652507 
-0.386674 0.208419 -0.012343 
-0.418103 1.146710 -0.753633 
-0.461097 1.060541 -0.625972 
0.221965 1.431684 0.447573 
-0.329825 0.826074 -0.042982 
0.161223 0.229455 0.581487 
-0.456039 0.352331 -0.062022 
-0.409819 1.174186 0.004596 
-0.269288 1.175206 -0.705905 
0.303343 0.190579 0.067745 
-0.268717 1.215451 -0.705896 
0.092074 1.492840 -0.738146 
0.047523 1.214918 0.718104 
-0.099097 0.137014 -0.227481 
0.113459 1.225623 0.677609 
-0.460437 1.141458 -0.229819 
0.203443 1.400169 -0.536778 
-0.011522 0.926955 0.707163 
0.284899 1.117837 0.104418 
-0.367875 1.489266 -0.738299 
0.117405 1.126366 0.301198 
-0.024503 1.135666 0.723195 
0.335187 0.056943 -0.070270 
0.326497 0.825921 -0.295375 
-0.459737 1.090915 -0.004333 
0.409212 0.601981 -0.545535 
-0.409414 1.705805 -0.627315 
0.455689 1.447117 -0.154371 
0.452846 0.748882 0.117371 
0.379948 1.354000 -0.703966 
-0.350096 1.837714 -0.671388 
-0.189840 0.136939 -0.497600 
0.003707 0.430326 0.538482 
0.457824 0.719234 0.013790 
0.456692 1.009842 0.034584 
-0.382723 1.810520 0.016333 
-0.409601 1.671758 -0.600021 
0.369645 0.824290 0.155995 
0.449214 1.268193 0.093707 
-0.386535 0.209255 0.028712 
0.238149 1.150572 0.308570 
-0.305492 1.357996 -0.295778 
0.381224 0.826045 -0.046952 
0.414059 0.589848 -0.739610 
0.408930 0.949829 -0.648924 
0.437446 0.154515 -0.742379 
0.091272 1.908066 -0.692181 
-0.228981 1.620560 -0.738108 
-0.416154 1.266108 0.067988 
-0.410359 1.024718 -0.112970 
-0.011077 0.899060 0.709128 
0.356397 1.836888 -0.627030 
0.455579 0.589545 -0.737409 
0.409494 1.267484 -0.261785 
0.028725 1.120490 0.603654 
0.094549 0.500181 0.559999 
-0.408723 0.892187 -0.697154 
0.409388 1.591249 -0.444752 
0.342634 0.090145 -0.680854 
0.211295 0.199697 -0.441167 
0.165019 0.390602 0.589778 
-0.369840 1.413185 -0.704727 
0.030855 1.360786 0.739675 
-0.395341 0.673527 0.003274 
-0.338541 1.216012 -0.705301 
-0.409691 1.397155 -0.088782 
-0.270172 1.898409 -0.751231 
-0.409581 1.334927 0.012392 
-0.460403 1.144956 -0.496745 
-0.336758 0.020809 0.011057 
0.134958 1.909152 -0.496012 
0.002776 0.307928 0.756499 
-0.455820 1.565397 -0.098454 
-0.326378 1.361093 0.057469 
0.054441 0.430836 0.567915 
0.296341 0.288045 0.123051 
0.206336 0.769819 0.515902 
0.069705 0.631238 -0.706783 
-0.034806 1.364860 -0.000582 
0.379457 1.358228 -0.668325 
0.319555 1.393873 0.295555 
-0.321319 0.208111 -0.709872 
0.459765 0.291760 0.098866 
-0.455516 1.402105 -0.734722 
0.418103 0.228755 0.170290 
0.408834 0.375644 -0.148825 
0.085491 1.367747 0.661168 
-0.224746 1.358038 -0.557883 
-0.100201 0.199351 0.057230 
0.034158 1.881583 0.719862 
0.408783 1.481383 0.019899 
0.409208 1.163189 -0.621712 
0.304179 1.116552 0.141556 
0.041270 0.869478 0.644778 
0.387089 0.787222 0.119105 
0.409453 1.163294 -0.559159 
0.409556 0.955339 -0.132584 
0.043850 1.142351 0.367263 
0.090261 1.909370 -0.366114 
0.458207 1.100648 -0.106842 
0.182387 1.837296 -0.038871 
0.113900 1.076053 0.422513 
-0.136418 1.358045 -0.623988 
0.409491 1.238923 -0.219652 
-0.380963 0.819129 0.054694 
0.227714 0.375596 -0.737989 
-0.454924 0.295954 -0.400772 
0.445805 1.839053 -0.744936 
0.135153 1.908739 0.006070 
-0.399739 1.361101 0.057861 
-0.409352 1.407715 0.012414 
-0.006784 1.723281 0.757614 
0.266653 1.875424 0.067694 
-0.142346 0.166747 0.068079 
-0.367600 1.364984 -0.689660 
0.278912 0.643430 0.412188 
-0.044973 0.825869 -0.333123 
0.409339 0.515120 -0.317025 
-0.241492 0.243015 -0.711058 
-0.004530 1.122382 0.579319 
0.409567 1.203675 -0.432900 
-0.061653 0.670277 -0.706384 
0.075947 1.150296 0.677346 
0.012441 1.400163 -0.468461 
-0.180493 0.818486 -0.278949 
0.143744 0.568457 0.488212 
0.333562 0.430627 0.190230 
0.447603 1.853327 -0.283635 
-0.002829 1.355006 0.686927 
0.409558 1.033301 -0.516882 
-0.303597 1.838803 0.057240 
0.032461 0.700085 0.646592 
-0.387143 0.233252 -0.288984 
-0.372604 0.818233 -0.062777 
0.452665 1.538022 -0.709563 
-0.309289 0.199968 -0.247583 
0.052542 1.668050 -0.705521 
-0.340871 0.818181 -0.024387 
-0.409627 0.449803 -0.061463 
0.428350 0.143481 -0.584542 
0.011561 0.803264 0.699323 
0.214924 1.349065 -0.705649 
0.275368 1.806850 -0.703260 
0.408930 0.285874 -0.194006 
0.385498 0.819287 0.054681 
0.017829 0.445808 0.765975 
0.436162 1.895713 -0.457571 
-0.383565 0.826278 -0.043602 
0.239020 1.097172 0.207424 
0.409202 0.246404 0.064252 
-0.283551 0.204413 -0.709443 
0.034312 0.734563 0.760342 
-0.403238 1.365768 -0.346641 
0.226339 0.823992 0.376495 
-0.300651 1.908145 -0.408093 
-0.324562 0.077745 -0.669888 
0.085649 1.357985 -0.562696 
0.409514 1.288141 -0.433412 
-0.458206 0.609335 0.029391 
-0.462087 0.722192 -0.316437 
0.455898 1.364362 -0.635100 
0.381262 0.403568 0.025268 
-0.186720 0.825835 -0.666257 
0.034880 0.605122 0.665323 
-0.022583 0.818399 -0.320445 
0.456636 0.460805 -0.417988 
-0.029606 1.641698 0.726486 
0.020222 0.883130 0.745834 
0.406251 1.392827 0.069463 
0.107086 1.067405 0.506214 
-0.050862 0.898612 -0.705608 
-0.409937 0.959549 -0.555330 
-0.146417 0.199734 -0.251162 
0.275673 0.804740 -0.738308 
-0.409720 1.218048 -0.667808 
-0.044287 1.075199 0.579633 
-0.453757 1.645050 0.027136 
0.076776 0.519539 0.713786 
-0.461061 0.635219 -0.535067 
0.445983 1.661628 0.084344 
0.165328 1.128957 0.367251 
-0.387000 0.233420 -0.201280 
-0.410068 1.350592 -0.553155 
-0.407666 0.250734 -0.694680 
-0.349588 1.837137 -0.091493 
0.403320 0.808313 -0.704239 
0.106201 1.146377 0.516856 
-0.302128 0.130325 0.003492 
-0.384802 1.831333 -0.654420 
0.224167 1.685287 0.329418 
0.335746 0.463605 0.189967 
0.342475 1.051556 0.153226 
-0.081740 1.794423 -0.704051 
-0.007256 1.075713 0.464243 
-0.037675 1.837726 -0.689719 
-0.435742 1.527815 0.068303 
0.383825 1.604860 0.037827 
0.125856 0.214427 0.604938 
-0.409704 0.413547 -0.239812 
-0.397868 1.357622 -0.553436 
-0.386436 1.819766 -0.557494 
0.078962 0.483329 0.582850 
0.409371 0.559921 -0.361168 
-0.351220 1.440319 -0.705020 
-0.409734 1.278871 -0.625077 
-0.279586 0.199811 -0.467957 
-0.433969 0.996719 0.068517 
-0.409631 0.436379 -0.594354 
0.416001 0.805115 -0.752023 
0.123300 0.799052 0.632259 
0.351204 1.836889 -0.591908 
-0.461606 0.677446 -0.579147 
0.368662 0.286600 0.083229 
0.302183 1.837325 -0.035586 
0.090467 1.909319 -0.452530 
0.192344 0.285876 0.360506 
-0.306124 1.364926 -0.091152 
-0.407270 0.244029 -0.008100 
-0.069576 0.482850 0.543557 
0.388910 0.826428 -0.427715 
-0.457340 1.440470 -0.099504 
-0.043801 0.354031 0.524393 
-0.366253 1.275464 -0.704869 
0.408978 1.331025 -0.681821 
-0.090489 1.751175 -0.738013 
0.133467 0.136980 -0.652968 
-0.455619 0.356548 0.024937 
0.330617 1.339430 -0.705281 
-0.366837 0.036579 -0.588102 
-0.360831 1.088158 -0.705064 
0.409094 0.642811 -0.121803 
0.395098 1.365115 -0.476233 
-0.330389 1.837013 -0.386986 
-0.221898 1.837158 -0.297595 
-0.221684 1.837118 -0.341378 
0.328299 0.071538 -0.671690 
0.004097 1.168127 0.678933 
0.198960 1.475187 0.370737 
-0.434142 0.954072 0.068400 
0.455648 0.715181 0.090493 
-0.457679 1.400361 -0.498637 
0.217606 0.855483 -0.705456 
0.409089 1.331065 -0.667701 
-0.415761 1.905438 -0.029408 
-0.445847 1.873126 -0.685073 
0.408610 1.352318 0.039117 
0.231012 1.906993 0.333387 
-0.104995 0.199684 -0.472704 
-0.173944 1.909106 -0.364804 
0.010686 0.872108 0.750135 
0.447286 1.857445 -0.545471 
0.409117 1.713770 -0.065000 
-0.450710 1.574622 -0.757164 
-0.144813 0.140187 -0.740840 
-0.438316 1.782309 0.067447 
0.460470 0.933516 -0.286335 
-0.450748 1.359443 -0.761482 
0.448270 1.831667 -0.068858 
0.448998 1.746865 0.039175 
0.136552 1.106713 0.222672 
-0.354472 0.094046 -0.076712 
-0.364343 0.825937 -0.198121 
0.183003 1.837059 -0.510900 
0.049914 1.076590 0.489042 
0.387347 0.416181 0.238502 
0.460843 0.803635 -0.107958 
0.103187 1.493976 0.678685 
0.089185 0.366339 0.369355 
0.385477 1.817612 -0.108426 
-0.136521 1.707732 -0.738012 
0.321317 1.636252 -0.704783 
0.267576 0.735235 0.301383 
0.352467 1.358159 -0.390400 
0.409210 0.846322 -0.471669 
0.183588 1.666387 -0.738030 
0.287858 1.161924 0.233640 
-0.222646 1.894264 0.057504 
0.231773 0.136760 -0.056883 
-0.409609 1.501482 -0.630804 
0.408319 0.684201 -0.695624 
-0.212338 0.825901 -0.070236 
0.398096 0.577385 0.078550 
0.296684 1.357646 -0.683308 
0.408316 0.328386 -0.009759 
0.306048 1.908095 -0.368422 
0.269225 0.138030 0.032919 
0.374472 1.358049 -0.520053 
0.439458 0.153833 0.037251 
0.337860 0.368953 0.054262 
-0.181431 1.325152 -0.705875 
0.345962 1.629365 0.139238 
0.457351 1.234734 -0.553985 
0.364855 0.471000 0.047889 
0.104675 0.286809 0.447736 
0.187156 0.469461 0.558910 
0.130290 1.030150 0.650872 
0.325288 0.825914 -0.339181 
-0.187043 0.896872 -0.705675 
-0.339026 0.825930 -0.377190 
0.379119 0.825542 -0.650229 
-0.385961 1.801169 -0.694034 
-0.297949 1.837450 -0.648127 
0.109923 1.175654 0.666521 
0.137922 0.826143 0.012954 
-0.455253 1.606598 -0.142641 
-0.010672 0.483613 0.745382 
-0.458895 1.271046 -0.319404 
0.455033 0.376391 -0.199532 
0.403889 1.356325 -0.051025 
0.314071 1.907057 -0.661687 
0.182438 0.825899 -0.071786 
0.370999 1.086390 0.219972 
0.395331 0.240968 -0.679681 
-0.418220 1.317142 -0.753403 
0.268217 0.826146 -0.000986 
-0.145531 0.199720 -0.206425 
0.417060 1.670301 -0.762376 
0.457948 0.546769 -0.286582 
0.452373 0.287192 -0.588204 
0.014399 1.138058 0.762681 
-0.395386 1.906849 -0.233783 
0.433162 1.877587 0.097988 
0.448619 0.549230 0.066791 
0.401606 0.217666 0.066672 
-0.419109 1.565241 0.068309 
0.149481 1.364801 -0.096630 
-0.450119 0.241677 0.058832 
-0.410079 1.318748 -0.510672 
0.457996 0.932781 -0.709301 
0.305222 0.429083 0.140111 
-0.384724 0.643244 0.031581 
0.450255 0.295329 0.123778 
0.061652 1.171391 0.587660 
0.263741 0.286065 0.241810 
0.203943 1.137203 0.220085 
0.181723 0.826096 -0.001323 
-0.371887 1.766462 -0.702532 
0.128359 1.165858 0.483401 
-0.000618 0.804661 -0.738283 
-0.321887 0.047421 0.005591 
-0.387104 1.791765 -0.030714 
0.038691 1.118925 0.486710 
0.134539 0.196908 -0.759625 
0.443859 0.164527 -0.155001 
0.012411 0.338536 0.763242 
0.207403 0.321854 0.231753 
-0.278968 1.364977 -0.531613 
0.054138 0.800139 0.732810 
0.267353 0.825831 -0.160581 
0.409471 1.288848 -0.519279 
0.404006 1.356692 -0.390437 
0.035127 0.250546 0.762973 
0.046087 1.909422 -0.322448 
-0.096022 0.876410 -0.705554 
-0.321276 0.826246 0.026196 
0.064047 0.505552 0.598194 
-0.137950 1.233310 -0.738194 
0.359231 0.000303 -0.040832 
-0.409745 1.044169 -0.670090 
0.409493 1.120263 -0.558926 
-0.043769 0.825872 -0.288587 
-0.418151 1.445347 -0.753625 
0.250706 0.428311 0.251920 
0.249976 0.237676 0.447564 
0.368644 0.554492 0.269073 
-0.418315 1.231565 -0.753699 
0.262820 1.164851 0.270790 
0.006493 0.905798 0.759818 
-0.409711 0.325908 -0.067679 
0.460454 0.761531 -0.595210 
-0.219181 0.177301 0.067699 
-0.311614 1.364955 -0.530714 
0.454634 1.536064 -0.330305 
0.012017 0.428682 0.527573 
0.381400 0.688002 0.125897 
-0.459109 0.514756 -0.226672 
-0.337321 0.195883 0.066817 
-0.093004 0.590185 -0.738171 
-0.039526 1.357735 -0.087894 
0.384098 1.830995 -0.108580 
0.296464 1.831198 0.212743 
0.244311 1.093012 0.244355 
-0.447600 1.486793 0.066372 
0.409086 1.032325 -0.645528 
-0.409462 1.662866 -0.033553 
0.104984 1.432670 0.517537 
0.382946 0.007867 -0.603290 
0.409064 1.733958 -0.318679 
-0.146593 0.744355 -0.705784 
-0.153735 0.818191 0.013929 
-0.410397 1.451243 0.055879 
0.372328 1.364864 -0.474788 
-0.351321 1.837815 -0.686390 
0.394929 1.358340 -0.681663 
0.230084 1.837462 -0.645306 
0.421839 1.885958 0.117413 
0.198640 1.861546 0.365081 
0.408460 1.293780 -0.693488 
-0.010549 1.033670 0.702959 
0.459011 1.062535 -0.375410 
-0.409316 1.763112 -0.028737 
-0.416609 1.905511 -0.190179 
0.414064 0.975688 -0.739767 
-0.092279 0.976139 -0.738218 
0.026931 0.200236 0.042549 
0.460965 0.803828 -0.153007 
0.149418 0.286883 0.375815 
0.004701 1.321809 0.765005 
0.197304 1.346840 0.373852 
0.338885 1.364789 -0.558356 
0.412837 1.486702 0.149025 
-0.376493 1.836885 -0.627336 
0.372938 0.059492 0.010289 
0.363085 0.430709 0.036841 
-0.409784 1.400191 -0.437107 
0.306179 1.903092 0.041397 
-0.321930 1.318004 -0.738318 
0.068148 0.445204 0.725698 
0.429744 0.817481 0.144436 
0.187391 1.809270 -0.703678 
0.408720 1.735808 0.000468 
-0.222231 0.200043 0.003289 
0.108295 1.156317 0.653476 
-0.386774 1.810228 -0.214302 
-0.026965 1.106435 0.530876 
0.314756 1.268673 0.193024 
0.429671 0.461141 0.165820 
-0.454515 1.565974 0.039062 
-0.455260 1.572513 -0.626625 
0.000766 1.794577 -0.738111 
0.260174 0.825838 -0.649606 
-0.017001 1.170572 0.710787 
0.370807 1.120968 -0.704794 
0.012341 0.818119 -0.026626 
0.405140 0.242714 -0.277360 
0.323493 0.943100 0.290586 
0.281628 1.515825 -0.705635 
0.175880 1.602380 0.405081 
0.401439 1.884429 0.075475 
0.445678 1.714970 -0.760671 
-0.455108 0.313093 -0.009787 
-0.409742 0.328607 -0.197720 
0.005091 1.101583 0.765818 
-0.409749 1.219847 0.019657 
0.412849 0.597572 0.192910 
-0.455248 1.609209 -0.320477 
-0.409606 0.320985 -0.652853 
0.251187 0.551736 -0.707560 
0.443761 0.229017 0.079835 
0.453926 1.579966 -0.374129 
-0.459056 0.511960 -0.314646 
0.202196 0.286512 0.324243 
0.215640 1.140559 0.206752 
0.297669 0.824325 0.267452 
0.409445 0.738169 -0.357546 
0.077493 0.465362 0.584947 
0.047272 1.837192 -0.115204 
-0.409626 1.250558 -0.683542 
0.001553 0.665961 0.712069 
-0.002632 0.930021 0.691856 
-0.409811 1.712909 -0.301412 
0.395321 1.343818 -0.704095 
0.417970 0.848030 -0.763599 
0.133326 1.109679 0.635877 
0.065932 0.826727 0.656763 
0.315397 0.204837 -0.738798 
-0.409569 1.502631 -0.652337 
0.459485 1.019791 -0.554074 
0.119371 0.199722 -0.349589 
-0.188600 1.364944 -0.177913 
-0.136783 1.664436 -0.738026 
-0.410292 1.101573 -0.378446 
0.354398 0.869402 -0.705064 
0.254922 0.682132 0.447507 
0.409062 1.734989 -0.274315 
0.161381 0.199749 -0.219297 
-0.460442 0.595466 -0.359134 
0.409144 0.425907 -0.587246 
-0.441902 0.167439 -0.753273 
-0.419520 1.104070 -0.764124 
0.443618 1.876611 -0.414277 
0.417524 0.213211 0.127552 
-0.455094 0.302403 -0.227910 
0.296933 1.754407 0.213501 
0.409223 0.603649 -0.452347 
-0.425293 0.488797 0.068305 
0.353186 0.200374 -0.187028 
-0.442548 1.885098 -0.364727 
-0.220375 1.908519 -0.580255 
-0.410202 1.084039 0.053828 
0.123615 1.173509 0.667285 
0.431098 0.506289 0.163205 
-0.297970 0.818359 -0.149615 
-0.314642 1.873243 -0.767234 
0.409117 0.600367 -0.621085 
0.022657 0.813754 0.683758 
-0.271940 0.825881 -0.376990 
0.409276 1.421362 -0.350518 
0.013634 1.393666 0.660676 
0.199831 1.601787 0.368119 
0.445408 0.637599 0.134283 
-0.348283 1.906273 -0.691180 
-0.410105 0.962722 -0.466982 
0.226083 1.100578 0.185351 
0.185097 1.837211 -0.623207 
-0.456744 0.381299 -0.401029 
0.409224 0.312299 -0.498478 
0.283455 0.214854 0.374311 
-0.456029 0.346676 -0.184435 
-0.457489 0.843751 0.054313 
-0.027055 0.363532 0.602034 
-0.410099 1.321956 -0.379888 
-0.387923 1.358140 -0.648562 
0.336345 0.572695 0.118495 
0.406235 0.817114 -0.047158 
0.237780 0.493663 0.343923 
0.406329 1.455777 -0.703174 
-0.307465 0.140498 0.045797 
-0.461234 0.762356 -0.680907 
0.022159 1.793944 0.744172 
0.183580 1.081614 0.363636 
-0.409206 0.577758 0.011595 
0.070594 0.214875 0.692856 
-0.443958 1.618386 -0.766438 
-0.449804 1.785539 -0.706341 
0.388811 1.850979 0.172436 
-0.409787 1.298522 0.040270 
0.409332 0.775490 -0.539979 
-0.337007 1.907754 -0.408158 
0.457809 0.762026 -0.722895 
0.137340 1.794889 -0.738133 
0.245178 0.786812 0.338338 
0.356012 1.358106 -0.561031 
0.348768 0.825941 -0.383409 
0.215349 1.357811 -0.668685 
-0.453007 0.246771 -0.638921 
0.047549 0.825870 -0.200365 
-0.028766 0.412026 0.599687 
-0.458439 1.103549 -0.720305 
0.174709 1.130938 0.327370 
0.041048 1.357885 -0.598749 
0.456254 1.364021 -0.509280 
-0.409944 0.645582 -0.370448 
-0.291678 0.826122 -0.017527 
0.420395 1.904716 -0.413633 
-0.268717 1.837399 -0.027981 
0.238113 0.428161 0.294922 
0.112035 0.442956 0.677673 
0.349745 0.453299 0.068085 
0.116753 0.429437 0.379188 
0.242145 1.234607 0.304644 
-0.015847 0.229650 -0.711301 
0.461036 0.846767 -0.152624 
0.222947 1.735687 0.438220 
0.448164 1.830434 -0.029300 
-0.043684 1.907582 -0.713963 
-0.045407 0.465113 0.526739 
0.022273 0.318740 0.659647 
0.373435 1.384379 -0.704530 
-0.054356 0.137633 -0.707140 
0.356923 1.206677 0.129099 
0.438484 1.575191 0.068078 
0.141665 1.090199 0.282885 
0.321600 1.668151 -0.738214 
0.409138 0.949761 -0.594540 
0.050465 0.948269 0.606752 
-0.398017 0.134608 -0.649856 
-0.409445 0.398780 -0.671634 
0.409484 0.951708 -0.473083 
0.385859 0.225871 0.035856 
-0.004835 0.372532 0.750549 
-0.004013 0.408275 0.751066 
0.369198 0.136111 -0.581768 
-0.358969 0.010553 -0.675955 
-0.410301 1.097135 -0.466616 
0.206993 0.550600 -0.707652 
-0.150655 0.583893 -0.707365 
0.409589 1.203169 -0.347041 
0.045614 0.933306 -0.738233 
-0.390307 0.041412 -0.659387 
0.183950 1.234241 -0.738207 
0.409365 0.893288 -0.213550 
0.451159 1.061045 -0.761552 
0.127683 1.206411 0.483710 
-0.155161 1.364970 -0.262500 
0.102973 0.818502 -0.618683 
-0.408626 1.561445 -0.013617 
0.089575 1.643384 0.648300 
-0.430507 0.147050 0.048817 
0.141244 0.584501 0.723073 
-0.414059 0.762171 -0.738515 
-0.410169 0.761703 -0.412872 
0.268776 0.136986 0.010916 
0.085798 0.825959 -0.552747 
0.408223 1.812688 0.145431 
-0.042717 1.837217 -0.078489 
-0.016030 0.261316 -0.711027 
-0.011953 1.356000 0.701244 
0.457001 0.675589 -0.723452 
0.100649 1.003177 0.642474 
-0.337357 0.135195 -0.570733 
0.166232 0.218380 -0.711091 
0.377134 0.823859 0.211988 
0.423376 1.746247 0.125746 
-0.397914 0.092158 -0.622109 
-0.092515 1.357744 -0.679498 
0.204093 0.226462 0.514067 
-0.300520 0.137277 -0.360493 
-0.138154 1.244662 -0.706136 
-0.452710 0.223682 -0.105651 
-0.409765 0.875612 0.016840 
0.120727 0.199707 -0.481124 
-0.269750 0.774174 -0.705440 
0.406435 1.864863 -0.766913 
0.434118 0.157360 0.057894 
0.100982 1.244944 0.643830 
0.135627 0.818427 -0.147996 
0.028611 0.377615 -0.709406 
-0.457691 0.462772 -0.615164 
-0.457557 1.146195 -0.734710 
0.409448 0.920579 -0.300276 
0.270175 1.837337 -0.036348 
0.136564 1.837941 0.019238 
-0.456005 0.344872 -0.227592 
-0.012787 0.308698 0.743435 
0.277948 0.381756 0.416511 
-0.458692 0.633981 -0.717155 
0.314796 1.829204 -0.701481 
-0.061692 0.818429 -0.363643 
0.045318 1.379758 -0.705374 
-0.125106 1.571105 -0.705855 
0.020631 0.818343 -0.576372 
0.212777 1.126643 0.189245 
0.296892 1.678152 0.215176 
-0.229604 1.447637 -0.738191 
0.388690 0.815119 0.117560 
0.184641 0.136914 -0.188488 
0.196801 0.428226 0.267268 
-0.100391 0.136967 -0.138631 
-0.071873 1.083381 0.479141 
0.409226 0.558205 -0.223049 
0.185520 0.553483 0.560070 
0.415790 0.547180 -0.752051 
0.135733 1.883577 0.065942 
-0.231878 0.825731 -0.623073 
0.310098 0.024848 -0.025196 
-0.005326 0.402511 0.519287 
0.455114 0.632338 -0.750497 
0.406239 0.817195 -0.357826 
0.028676 0.430783 0.469973 
-0.374599 1.357544 0.038451 
0.245288 1.390201 0.298929 
-0.407891 0.675705 -0.006653 
-0.456445 1.266117 0.050780 
0.397793 0.134533 -0.033518 
0.406246 1.286862 0.069944 
-0.455244 1.607827 -0.231608 
0.457323 0.504243 -0.198959 
0.355763 0.201048 0.017245 
0.226438 0.826068 -0.019908 
0.440026 0.417315 -0.765517 
-0.086638 1.364925 -0.106500 
-0.338905 0.137089 -0.541981 
0.173000 1.515003 0.522365 
-0.410082 1.338362 -0.380112 
0.213791 0.428353 0.331847 
0.297581 0.911119 0.325859 
0.305396 0.055460 -0.023639 
0.059880 1.863483 0.580967 
0.323330 1.130052 0.293694 
-0.409778 0.847828 -0.466796 
0.452767 0.290659 -0.071798 
0.265743 1.908460 -0.193621 
0.388597 1.599154 0.008954 
0.409131 1.203882 -0.645156 
0.396337 0.826416 0.034198 
0.389171 0.622191 0.112835 
0.454399 1.138031 0.051926 
-0.148096 0.199724 -0.339850 
0.149052 1.884670 0.539703 
0.115696 0.899063 0.602154 
0.026986 0.545744 -0.707703 
0.436021 1.895769 -0.196048 
0.223152 0.818537 -0.619204 
0.137822 0.826135 0.025929 
0.322835 1.837107 -0.282166 
0.312969 0.429343 0.152447 
-0.388327 1.789245 -0.676167 
-0.045568 1.075101 0.455058 
-0.006800 0.764458 0.748128 
0.269497 0.152835 0.062215 
-0.415534 0.319509 0.067920 
-0.361424 1.358059 -0.338287 
-0.062482 1.075501 0.483133 
-0.424561 0.141372 -0.717103 
-0.074393 1.365061 -0.501461 
-0.225913 0.137008 -0.453046 
0.254227 0.428391 0.203788 
-0.370850 1.832700 -0.699370 
-0.419572 1.146643 -0.764066 
-0.441894 1.231471 -0.766919 
0.171853 0.306413 0.270089 
0.454263 0.460608 -0.734875 
0.001231 0.580920 0.600503 
0.135097 0.219639 0.610945 
0.103642 1.134512 0.333444 
0.053727 0.818134 -0.026284 
0.239832 0.214505 0.440875 
0.227348 0.332844 -0.738024 
0.039099 1.078909 0.613126 
0.126853 1.402415 0.656250 
0.287410 0.542173 0.267925 
0.407660 1.735571 0.059257 
-0.385230 1.357621 -0.072784 
0.298647 1.358088 -0.561755 
-0.394390 1.784789 -0.431891 
0.100096 0.294649 0.680410 
0.454068 0.333834 -0.156497 
0.455201 1.493784 -0.463463 
0.142662 0.625430 0.721478 
0.111478 0.199431 0.056776 
0.073910 0.378646 -0.709432 
0.327881 0.468170 -0.708009 
-0.006027 0.997446 -0.706065 
0.275646 1.624026 -0.738158 
0.453933 1.578614 -0.242386 
0.144198 1.548716 -0.705841 
0.455220 1.492632 -0.330463 
0.457008 1.191329 -0.667392 
-0.368737 0.825887 -0.592295 
-0.003715 1.102909 0.476128 
0.430714 1.784121 0.112316 
-0.409767 0.284993 -0.332005 
-0.057926 0.137054 -0.228208 
0.015150 1.823603 0.753370 
0.326699 1.836976 -0.551854 
0.446433 0.775301 0.126639 
0.394442 1.358467 -0.667497 
-0.008599 0.791958 0.744901 
0.408863 1.397349 -0.023480 
0.279526 0.309533 0.125288 
0.015113 1.513681 0.757802 
0.011732 0.497270 0.562290 
0.408611 1.368929 -0.656589 
0.443992 0.167174 0.037945 
0.455193 1.489711 -0.068398 
0.033160 0.286576 0.553207 
0.184358 1.837085 -0.592845 
0.455195 1.364448 -0.692344 
-0.093951 0.825966 -0.509098 
0.186281 0.511097 0.559975 
0.456222 1.363508 -0.419787 
-0.033004 0.556266 0.586016 
-0.306644 1.358101 -0.426444 
0.272152 1.757240 0.252127 
-0.219760 1.837063 -0.516988 
0.459637 0.675432 -0.551208 
-0.461391 0.847695 -0.681513 
0.366612 1.797255 -0.738536 
0.255348 0.345558 -0.709861 
-0.462201 0.973705 -0.362387 
0.385623 0.220442 0.016293 
-0.399717 1.249406 -0.704025 
0.443564 1.819324 0.087406 
0.044644 0.287147 0.511754 
-0.010157 1.820099 0.691151 
0.295788 0.286705 0.170076 
0.458977 1.062630 -0.554082 
-0.408617 1.776031 -0.214508 
0.371723 1.358115 -0.390423 
-0.410053 1.181783 -0.553057 
-0.205232 0.826085 -0.000812 
0.399701 0.320349 -0.708030 
-0.345545 0.002789 -0.590919 
0.364389 0.785283 0.154204 
0.365774 0.000551 -0.030795 
-0.084513 1.357573 -0.044967 
0.049535 0.825857 -0.111753 
0.184433 0.241419 0.549585 
0.408893 0.989375 -0.666111 
-0.442793 1.883788 -0.030276 
0.290456 1.398502 -0.705525 
0.274187 1.365207 -0.498026 
-0.452791 1.722339 -0.004420 
0.163315 0.432086 0.292869 
-0.455796 0.355863 0.010275 
0.456322 1.052238 0.035684 
-0.217295 1.837240 -0.624495 
0.322739 1.063021 0.184730 
-0.134210 1.899415 -0.750007 
-0.229373 0.160360 -0.765656 
-0.443925 0.461007 -0.765400 
0.449292 1.444565 0.061045 
-0.450536 1.445082 -0.760422 
-0.050827 0.311549 0.565734 
-0.456193 1.401918 -0.704946 
-0.409722 1.741623 -0.476547 
0.208183 0.882420 0.368805 
0.231365 0.280129 0.342540 
-0.007948 1.793077 0.756214 
0.371374 1.001129 0.218829 
-0.022879 1.759967 0.745909 
0.415788 0.632567 -0.751899 
-0.299708 1.361097 0.057250 
0.306705 0.136703 -0.678252 
-0.458181 0.692731 0.042284 
-0.005398 0.827652 -0.698569 
0.447151 0.211716 0.051147 
0.458432 1.103868 -0.241201 
-0.409654 0.798291 -0.685814 
0.385721 1.819180 -0.502984 
-0.270162 1.131633 -0.705930 
-0.227095 1.837661 -0.738500 
0.442074 0.415834 0.142684 
0.363636 0.094573 0.015986 
0.452933 0.373636 -0.734114 
0.087345 0.146914 -0.753946 
-0.457825 1.133453 0.039027 
0.122195 0.360476 0.651591 
-0.409741 1.403151 -0.527723 
0.246648 1.477498 0.408263 
0.041287 0.196317 -0.760833 
-0.458745 0.506402 -0.575366 
0.296060 0.289509 -0.710439 
0.347524 0.886491 0.150275 
-0.031522 1.244737 0.735376 
-0.014932 0.199702 -0.475727 
-0.077064 0.826157 0.001755 
-0.462166 0.720567 -0.492502 
0.025236 0.341562 0.681950 
0.379763 0.426625 -0.707515 
0.378165 1.435098 0.093054 
-0.267410 1.358122 -0.383656 
0.067534 0.711939 -0.705987 
-0.448813 1.682394 0.061955 
0.455634 0.549438 0.036311 
0.151699 0.733860 0.479484 
0.186977 0.443395 0.421310 
0.456631 0.461538 -0.199172 
0.366785 0.912450 0.119050 
0.369402 0.682977 0.262437 
0.408563 1.437894 0.046511 
0.099293 0.679020 0.680556 
0.306502 1.908101 -0.281390 
-0.452774 0.225659 -0.070130 
0.366481 0.929312 0.118910 
0.408916 1.163209 -0.679278 
0.451473 1.581913 -0.723568 
0.195056 0.309493 0.252368 
0.409478 0.953730 -0.215972 
0.352404 0.576983 0.089970 
0.321015 1.754373 -0.738253 
0.229563 0.804696 -0.738302 
0.192442 0.774316 -0.705480 
0.353446 0.200327 -0.316184 
0.440287 0.718869 -0.766657 
0.187180 0.293092 0.552099 
-0.450403 1.814554 -0.496847 
0.095163 0.818296 -0.066460 
0.093855 0.310749 0.363633 
0.248023 1.724337 0.290940 
0.354146 1.838519 0.049962 
0.001234 0.237909 0.719622 
-0.456363 1.527138 -0.454178 
0.271286 0.204849 -0.738792 
-0.347381 1.836956 -0.595816 
0.246689 1.521467 0.407337 
-0.135596 1.357980 -0.517392 
0.359516 1.364844 -0.213919 
-0.042241 1.909421 -0.278532 
0.397144 1.365004 -0.348909 
0.127067 1.262917 0.483076 
-0.099394 0.140029 -0.740524 
0.135810 0.418576 -0.737960 
0.405168 0.137437 -0.641947 
-0.005095 0.445743 0.723904 
0.454991 0.376157 -0.113467 
-0.368251 0.200493 -0.378786 
0.321065 0.111184 -0.588242 
0.306292 0.111215 -0.597235 
0.002574 1.837829 0.014956 
0.378874 1.907083 -0.151522 
-0.343255 1.364919 -0.257700 
0.380023 0.202256 -0.536017 
0.204733 0.384761 0.223845 
0.081611 0.286147 0.535336 
0.027501 0.583930 0.651101 
0.304315 0.215064 0.340949 
-0.003910 0.290747 0.529737 
0.022442 0.570372 0.656168 
0.002080 1.723506 0.761825 
0.307182 0.092633 -0.598565 
-0.016355 1.892781 0.705025 
0.051899 1.810014 -0.703824 
0.083323 0.996011 -0.706108 
0.415947 1.002440 0.149676 
0.225221 0.136900 -0.144890 
-0.087571 1.882742 0.066104 
0.354906 0.468600 -0.707637 
0.229479 0.761782 -0.738262 
-0.408149 0.246105 -0.113235 
0.340948 0.325998 0.048570 
0.442778 1.878990 -0.067881 
0.393603 0.241570 -0.276754 
-0.409424 1.349691 0.014101 
0.144333 0.666072 0.719398 
-0.045520 1.535263 -0.738124 
0.399268 0.942047 0.074235 
0.367985 0.847826 -0.738419 
-0.409800 1.414399 -0.347036 
0.409419 0.737729 -0.403518 
-0.175915 1.837072 -0.428512 
0.025956 0.545955 0.573703 
-0.322162 0.021827 -0.662119 
0.148410 0.287833 0.331219 
0.440011 1.487998 0.067356 
0.194790 0.747564 -0.705669 
0.150520 1.364827 -0.053481 
-0.365650 0.000401 -0.656772 
0.054959 1.357304 0.017790 
0.347002 1.779775 0.135433 
0.404592 0.245955 -0.696882 
0.043734 1.365245 -0.246614 
0.436645 1.895573 -0.370268 
-0.379873 0.201606 -0.202232 
-0.313494 0.827568 -0.699002 
0.390444 0.906167 0.084364 
-0.370932 1.357886 -0.668639 
-0.247742 1.364803 -0.653752 
0.110849 0.710756 0.662101 
0.039775 0.888073 0.718890 
0.409061 0.645152 -0.170873 
0.182507 0.910524 0.402961 
-0.386598 1.885636 0.064201 
-0.047806 1.365177 -0.190443 
-0.409136 1.773988 0.029006 
-0.462624 0.805667 -0.317152 
-0.409890 1.682730 -0.257698 
0.349234 0.950012 -0.705233 
0.026774 0.408934 0.680353 
-0.453811 0.255640 -0.400857 
-0.420933 1.531426 -0.766055 
0.452856 0.550034 0.122958 
0.183747 0.976176 -0.738246 
-0.216389 1.837641 -0.663682 
0.190196 0.826128 0.503277 
0.409194 0.866597 -0.556201 
-0.339090 0.000672 -0.027382 
0.188821 1.633266 -0.705665 
-0.360017 0.040859 -0.677547 
-0.452684 0.287733 -0.741901 
0.409493 1.288047 -0.476520 
0.409187 0.553254 -0.129503 
-0.390817 1.840260 0.067441 
-0.318299 1.843354 -0.755358 
-0.285749 0.135016 -0.042898 
0.363864 0.247966 -0.738399 
0.085029 0.825829 -0.621807 
0.151180 1.861504 0.438343 
0.180368 0.825806 -0.202931 
0.432385 0.551016 0.159910 
0.415873 1.581335 -0.751005 
0.098110 1.274479 0.648042 
-0.353581 1.837010 -0.300211 
0.259951 0.826313 -0.684860 
0.007403 0.763941 0.759031 
0.095332 0.424182 0.365249 
0.195703 0.682857 0.411237 
-0.329509 0.136012 -0.084234 
-0.420913 0.804985 -0.766105 
-0.017885 1.897966 0.718735 
0.369858 0.134539 -0.070123 
-0.392246 0.137707 -0.182215 
-0.408737 1.368531 0.043393 
-0.457477 0.568929 0.039977 
0.298751 0.825897 -0.594808 
0.251144 0.279009 0.312178 
-0.180426 1.358005 -0.558782 
-0.408642 1.775507 -0.172347 
0.145545 1.084419 0.343023 
0.268217 0.774180 0.301687 
0.377813 0.971491 0.100613 
-0.359741 1.358031 -0.512324 
0.392701 0.477274 0.019483 
-0.424895 1.527986 0.068098 
-0.408591 1.330212 -0.696009 
-0.357805 1.357902 -0.250899 
0.084811 1.357919 -0.625508 
0.455680 1.450048 -0.419333 
-0.458923 1.145895 -0.685247 
0.172963 1.358045 -0.598979 
0.454062 0.718071 0.058017 
-0.387272 0.233292 -0.113933 
0.134920 1.016239 0.637320 
0.367182 1.483890 -0.704539 
0.038804 0.956865 -0.705893 
-0.409443 1.421759 0.037708 
-0.061795 0.628348 -0.706833 
0.409010 0.949716 -0.624597 
-0.409678 0.292090 -0.626936 
-0.017704 1.599768 0.707193 
0.455970 1.278040 -0.692108 
0.047005 1.838361 0.039613 
-0.001886 1.793361 0.678704 
0.207778 0.214278 0.419233 
0.460223 0.761155 -0.064354 
0.456291 1.234694 -0.692243 
0.268448 1.837247 -0.109685 
-0.409865 0.384294 -0.464766 
0.300383 0.412869 0.109118 
0.359113 0.285090 0.277519 
0.300443 0.716941 0.373380 
0.039276 1.270371 -0.706139 
0.227236 0.825914 -0.073535 
0.392203 0.026980 -0.050530 
0.387296 1.120764 -0.704478 
0.216591 0.818445 -0.447522 
0.345801 0.977596 0.148833 
0.399671 0.137759 -0.106773 
0.140737 0.515347 0.492148 
-0.409507 1.503698 -0.669362 
0.040198 0.825865 -0.620881 
0.225562 1.908286 -0.623217 
0.414059 1.191124 -0.739707 
-0.257101 1.787067 -0.703758 
-0.455795 1.565428 -0.059666 
-0.224172 0.136884 -0.137694 
0.102072 1.362952 0.679822 
-0.312109 0.826017 -0.510484 
0.408852 1.444855 -0.001628 
-0.441099 1.888415 -0.621637 
-0.410069 0.708921 -0.142544 
-0.396078 1.562979 0.067015 
-0.408368 1.776795 -0.257594 
0.123558 1.196527 0.639838 
0.168978 1.099367 0.202384 
0.409401 1.511214 -0.441096 
0.296466 0.315038 -0.710102 
0.226178 1.908047 -0.660363 
0.059867 1.833471 0.581448 
0.457962 0.546994 -0.198761 
0.004028 1.174502 0.764987 
0.071969 0.297003 0.370274 
0.217647 0.838939 -0.705230 
-0.457715 0.918117 0.053134 
-0.086415 1.909380 -0.408335 
0.409035 1.429260 -0.612988 
0.326422 0.826029 -0.513886 
-0.008332 0.429389 0.511610 
0.166197 0.232088 -0.711184 
-0.224723 0.199886 -0.042652 
0.263425 1.837069 -0.418406 
-0.001810 0.590229 0.717401 
-0.396101 0.221739 0.064947 
-0.000531 0.847543 -0.738281 
0.403878 0.305163 0.204722 
0.272556 0.287888 0.162443 
-0.387001 1.817897 -0.474502 
0.172031 1.357916 -0.668269 
-0.409552 1.217591 -0.683666 
-0.409637 0.771110 -0.678451 
0.409510 0.954388 -0.173937 
0.392977 0.940461 0.181209 
-0.356531 0.826119 -0.019817 
-0.042461 1.837623 -0.001081 
-0.342314 0.665637 -0.706042 
0.162169 1.088355 0.296162 
0.456597 1.319042 -0.286109 
0.127370 1.231277 0.483486 
0.409240 0.846151 -0.428322 
0.415659 1.364097 -0.751139 
0.410869 0.507126 0.198818 
-0.409708 1.735890 -0.344992 
0.105009 1.847009 0.510721 
0.040273 0.146964 -0.754238 
0.196541 0.871256 0.464131 
0.091157 0.718855 -0.738224 
0.409660 0.844449 0.052291 
0.163477 1.368859 -0.366806 
0.136575 1.905320 -0.733963 
-0.408917 0.249790 -0.421596 
0.338397 0.285864 0.312547 
0.044532 0.214871 0.673313 
0.015871 0.587371 0.692347 
0.353619 0.423042 0.032274 
0.158677 0.912966 0.540890 
0.368077 1.364045 -0.738381 
0.437536 0.149984 0.017731 
0.125453 1.162427 0.600280 
0.420520 0.215189 0.089029 
0.074876 1.128000 0.435232 
0.221796 1.845414 0.434748 
