0.297868 0.875907 -0.551577 
0.345306 1.224712 0.441413 
-0.471924 0.673832 0.270861 
-0.376116 1.910359 0.343742 
-0.133676 1.095575 0.441368 
0.471957 0.742011 0.165254 
-0.004742 0.803197 0.432709 
0.222263 0.444075 -0.551549 
-0.359355 0.028508 0.251483 
-0.472053 0.644895 0.085868 
-0.134185 1.018361 0.441430 
0.044642 0.121486 0.355880 
0.464189 1.572524 0.421477 
-0.453819 1.854161 0.351351 
0.078015 1.120114 0.441189 
-0.059402 0.155359 0.423071 
-0.458150 1.859802 0.268914 
0.005057 1.171812 -0.551625 
0.405106 0.002294 -0.456494 
0.256213 0.105712 -0.357805 
0.471302 1.277740 0.319526 
-0.471966 0.933724 -0.358084 
0.219702 0.714440 -0.551614 
-0.470458 1.571094 -0.177823 
0.470337 1.574282 -0.102370 
-0.312611 1.359594 -0.551639 
-0.381379 0.090585 0.236896 
-0.458275 1.859515 0.216821 
0.425572 0.095682 -0.473404 
0.129283 1.762788 -0.549065 
0.103572 0.907537 0.435373 
-0.467334 0.242790 0.402650 
-0.148557 0.105777 -0.245352 
0.077703 1.014018 0.441276 
0.467089 0.201855 0.391739 
0.457601 0.894392 0.423074 
-0.085404 1.571470 0.441592 
-0.239595 0.248430 0.441244 
0.287878 0.506139 0.441949 
0.436847 0.826893 0.368588 
0.049629 1.439297 0.441212 
0.232808 0.160390 0.356229 
-0.472160 0.432014 0.030952 
-0.146187 0.619834 0.441722 
0.259643 0.154802 0.413874 
-0.463363 1.785290 -0.340213 
-0.464715 1.727059 -0.019969 
0.251535 0.105738 -0.219781 
0.260556 0.290069 0.441210 
-0.140083 1.912053 -0.207528 
0.471849 1.225480 -0.450942 
0.468581 1.414147 -0.528915 
0.215681 1.440225 -0.551681 
-0.465991 0.456667 0.423335 
0.085914 0.957074 -0.551634 
0.471945 0.444105 0.083426 
0.276080 1.911899 -0.155387 
-0.471816 0.346915 -0.464795 
0.281489 1.836233 0.432525 
-0.465132 1.334249 0.410016 
-0.382171 0.105176 0.188406 
0.316924 1.492044 0.441382 
-0.274643 1.852170 0.430298 
-0.193457 1.911960 0.029949 
0.364975 0.163906 0.435237 
-0.464474 1.066532 0.414845 
-0.042025 0.105845 -0.379726 
0.046375 0.457917 0.441429 
0.314061 0.288048 0.441264 
0.053434 1.573791 -0.551354 
0.468627 0.956434 -0.528888 
-0.234034 0.138726 -0.548352 
-0.336283 0.093022 -0.508994 
-0.366218 1.025552 0.461388 
0.183277 1.412265 0.441224 
0.424246 1.010324 -0.551396 
-0.121747 0.105778 -0.245391 
0.003251 1.359305 -0.551703 
0.119022 0.175265 -0.550898 
0.224214 1.911853 0.161369 
-0.471948 0.299936 0.213665 
-0.423008 0.091193 0.243465 
0.471994 0.767606 -0.370749 
0.254316 1.912028 -0.445126 
-0.388851 0.450694 -0.551498 
0.468290 1.545963 0.342818 
0.327512 1.911813 0.240784 
-0.054359 1.174143 0.441161 
-0.332566 0.084594 0.291006 
0.468088 1.331512 0.344522 
-0.114531 1.911957 -0.049281 
-0.323501 0.997125 0.462379 
0.315633 0.640346 0.441974 
0.417287 0.101314 -0.513512 
-0.013718 0.105920 -0.137818 
-0.309675 0.503244 -0.551481 
-0.054584 1.068880 0.441243 
0.441717 1.252501 -0.548828 
0.459291 1.848840 -0.423554 
0.454954 1.882743 0.137599 
0.072551 1.911994 -0.470980 
-0.002087 1.306773 0.441155 
-0.137537 1.911488 -0.523438 
0.287978 0.533104 0.441975 
-0.471371 0.989288 0.318769 
-0.441237 0.799070 -0.548889 
-0.370932 1.557180 0.520981 
-0.265166 0.222549 0.441200 
0.471856 0.929321 -0.422985 
-0.359077 0.743463 0.509659 
0.179820 1.650256 0.441098 
0.153479 0.217039 0.441026 
0.443562 0.162072 0.431991 
-0.159817 1.334377 0.441255 
0.453681 0.113265 -0.081140 
0.441863 0.956478 -0.548688 
-0.034538 1.752431 0.438878 
0.376949 1.602596 -0.551002 
-0.450958 0.112376 -0.426932 
0.471977 0.794554 -0.290574 
0.163491 1.279061 -0.551675 
-0.124105 0.447135 -0.551608 
0.199944 0.105799 -0.274477 
0.301399 1.911694 0.109296 
-0.409364 1.334726 0.441102 
-0.469109 1.598770 -0.310499 
-0.043489 0.257255 -0.551005 
-0.415531 0.195468 0.440563 
-0.443397 0.109569 -0.052863 
-0.360434 1.076751 0.490583 
0.378215 1.897698 0.370802 
-0.115439 1.894270 0.369117 
-0.465627 1.441779 0.400100 
0.175614 1.911865 -0.392415 
0.471987 1.198124 -0.155906 
-0.362401 0.798502 -0.551550 
-0.028508 1.707964 -0.549907 
0.462076 1.816087 -0.129210 
0.073181 0.185096 0.439753 
-0.062490 1.911784 0.291634 
-0.466803 0.143554 -0.320319 
-0.470837 0.169479 0.306795 
-0.471661 0.806016 0.272531 
0.170504 0.336039 -0.551407 
0.250166 1.911946 0.187752 
-0.467515 0.675885 0.401217 
0.361869 0.006979 -0.441598 
0.470938 1.521868 -0.345052 
-0.414167 0.017433 0.268272 
-0.466458 1.648836 0.007185 
-0.463222 0.118405 -0.400880 
-0.324593 1.911908 -0.048546 
-0.328001 0.973116 0.459600 
0.416713 0.230372 0.440838 
0.441898 0.109144 0.139917 
-0.358714 0.035317 -0.434249 
-0.013168 0.105940 -0.057127 
-0.323902 0.416693 0.490840 
0.376434 0.023575 0.317816 
-0.407849 0.328961 0.441322 
0.202118 0.112037 -0.533239 
0.470491 1.007482 0.335182 
0.471838 1.279321 -0.424337 
-0.472048 0.673030 0.218587 
-0.326037 1.076481 0.494968 
0.464488 1.652248 0.399515 
-0.377001 1.911830 -0.260356 
0.471987 0.551380 -0.398647 
-0.471702 1.120848 0.246262 
0.472010 0.902161 -0.075937 
0.471602 0.925699 0.298514 
-0.470599 0.186315 -0.516091 
-0.059783 0.154362 0.405242 
0.471594 1.359001 0.059401 
-0.035418 0.114561 0.352952 
-0.438577 0.107828 -0.449411 
-0.471888 0.512284 0.268469 
-0.472118 0.590010 -0.125268 
-0.140903 1.673584 0.440808 
0.353514 1.910476 0.343755 
-0.456270 1.493681 0.365567 
-0.377196 1.911848 0.004566 
-0.471482 1.412382 0.087893 
-0.471871 1.146485 -0.436026 
-0.471412 1.438748 0.061341 
-0.403441 1.911621 -0.021669 
0.455113 1.836736 0.372450 
-0.462826 0.118406 0.318578 
-0.470586 1.570406 -0.018862 
0.445094 1.901392 -0.209073 
-0.465009 1.495279 0.412316 
0.313119 0.194102 0.440641 
-0.363659 0.165274 0.370678 
-0.324921 1.911807 0.266212 
-0.192441 1.911960 -0.260305 
0.415245 0.023281 0.270159 
-0.465342 1.468099 0.389488 
0.471812 0.551393 -0.477387 
-0.189878 1.495543 0.441442 
-0.321121 0.116041 0.353972 
0.429835 0.776703 0.435827 
0.446233 0.278925 -0.547298 
0.463092 1.787132 0.247612 
0.242844 1.386615 -0.551673 
0.472006 0.280457 -0.106639 
0.350274 0.929669 -0.551523 
0.353122 1.911762 0.267148 
-0.315229 1.520147 -0.551665 
0.453784 1.862289 0.409970 
0.046860 0.217659 0.440921 
-0.342536 0.081766 0.327654 
-0.371002 0.409889 0.510616 
0.119500 0.138904 -0.548381 
0.471813 0.553079 0.110663 
0.468978 1.600067 0.297050 
0.472106 0.713978 -0.076745 
0.405037 0.071121 0.241584 
0.472000 0.497201 -0.345961 
-0.343602 0.034743 -0.448505 
-0.469103 1.599102 -0.336980 
-0.471807 0.906511 -0.462062 
-0.343177 0.052130 -0.496878 
-0.472085 0.693681 -0.410736 
0.432436 1.438904 0.439303 
0.429689 1.910769 -0.155643 
0.030088 1.332538 -0.551701 
-0.078468 1.519923 -0.551678 
0.263489 1.438759 0.441270 
-0.439670 1.388766 0.437117 
0.042123 1.911689 0.134626 
0.404662 0.497426 -0.551518 
0.343516 1.545327 0.441561 
0.413954 0.014308 0.288978 
-0.343212 0.975334 0.512222 
-0.291594 0.158957 0.433120 
-0.371584 1.597543 0.469111 
0.247263 0.579317 -0.551578 
0.078022 1.146674 0.441160 
-0.334530 1.037981 0.486170 
0.173792 1.911958 -0.260830 
-0.463283 0.217488 0.350951 
0.339869 0.208827 0.441018 
0.073309 0.197330 0.440651 
-0.452836 0.215916 0.434084 
-0.403444 1.911450 0.083885 
0.454547 1.143332 0.432900 
0.472129 0.443722 0.002595 
0.458743 1.740455 -0.536901 
0.471865 1.279127 -0.290267 
0.471716 1.278084 0.167015 
0.405748 0.105502 -0.218697 
0.020090 0.197461 0.440674 
0.112379 0.957006 -0.551645 
-0.462563 0.456350 0.430968 
0.467967 1.277744 0.344769 
-0.472062 0.614316 -0.359519 
-0.472062 0.458922 0.215801 
-0.354975 0.399181 0.532109 
0.152460 0.126599 0.355912 
-0.234318 0.126205 -0.545792 
-0.254536 0.105936 0.184386 
-0.464452 1.699138 0.329060 
-0.061495 1.911938 -0.181249 
-0.015778 0.112232 -0.533790 
0.472147 0.659907 -0.130700 
-0.464134 1.173147 0.378173 
-0.389895 1.279582 -0.551566 
-0.350975 1.911756 0.083429 
0.464108 0.306464 -0.539785 
0.216979 1.225444 -0.551651 
0.347330 0.019884 0.273306 
0.210838 1.305659 0.441189 
0.316408 0.720010 0.441631 
0.471042 1.466368 0.113268 
-0.177279 0.555496 -0.551605 
0.378432 1.910363 0.343755 
0.385386 0.167733 0.364078 
-0.367189 0.623944 0.495981 
-0.278630 0.105881 0.079681 
-0.347316 0.471709 0.545567 
0.265025 1.091352 0.441282 
0.313326 0.209787 0.441051 
0.471363 1.439655 0.032465 
-0.332375 0.900415 0.434805 
0.093267 0.105829 -0.434035 
0.224420 1.911828 -0.128844 
0.411978 0.007420 -0.447163 
0.068208 1.911779 0.082122 
-0.363000 1.092511 -0.551535 
-0.471825 1.120948 0.193679 
0.160217 1.574199 -0.551342 
-0.471922 1.094456 0.035249 
-0.123098 0.105826 -0.352759 
-0.085536 1.912000 -0.444671 
-0.369603 0.747358 0.443938 
0.075811 1.789670 -0.548524 
-0.467369 1.621748 0.296880 
-0.124134 0.501090 -0.551598 
0.465159 0.474302 0.347979 
0.315363 0.104858 -0.413644 
0.127884 0.721656 0.441465 
-0.451688 1.894426 -0.394585 
0.152148 1.702718 0.440212 
-0.324544 0.431986 0.460466 
0.454427 0.821733 -0.543928 
0.225473 1.911954 -0.261009 
0.382819 1.911768 -0.497482 
0.464757 0.448719 0.428573 
-0.370885 0.983641 0.455380 
0.464186 1.546085 0.421816 
-0.353455 1.340748 0.542880 
-0.370873 1.171480 0.512436 
0.471173 0.171355 0.165692 
-0.008291 0.152917 0.356172 
-0.466313 0.215467 0.418126 
-0.195957 0.107042 0.341823 
-0.363790 0.000956 -0.454072 
-0.340283 0.700866 0.534848 
0.418381 0.953247 0.439059 
-0.213537 1.069374 0.441422 
-0.465327 1.066214 -0.539060 
-0.363480 0.288000 -0.551161 
-0.457222 1.864952 -0.450154 
0.335806 0.070651 -0.442877 
0.131247 1.146175 0.441189 
-0.273948 1.896305 0.370106 
-0.393670 0.056818 -0.429017 
0.472003 0.551387 -0.372091 
-0.040428 0.105910 -0.137735 
0.472031 0.388495 -0.400357 
-0.043666 0.311243 -0.551294 
0.174951 0.105773 -0.382136 
-0.472128 0.379013 -0.022425 
0.444506 1.143394 0.435738 
-0.311823 1.279405 -0.551609 
0.463037 1.793148 -0.425425 
0.122111 1.900313 0.402584 
0.471414 1.440501 -0.236890 
0.318794 1.090720 0.441396 
-0.410659 0.920756 0.436547 
0.465005 1.438983 0.411030 
-0.370900 0.698122 0.517863 
-0.471284 0.169695 -0.051746 
-0.472131 0.828349 -0.201958 
0.355758 0.361545 -0.551407 
-0.081704 0.964884 0.440113 
-0.165645 0.154442 0.377756 
-0.383924 0.105482 -0.215857 
0.275602 1.911965 0.003489 
-0.230289 0.636641 -0.551623 
0.471106 0.632667 -0.516230 
-0.225690 0.105914 -0.001891 
-0.175825 0.105806 -0.272396 
0.463972 1.625449 0.419949 
-0.032068 0.271240 0.441013 
0.179667 0.167805 0.364771 
0.276453 0.362132 -0.551448 
0.099838 1.649744 0.441070 
0.197181 0.335736 -0.551374 
-0.471592 1.412320 -0.097267 
0.471859 0.848463 -0.343679 
-0.440780 1.888972 0.420918 
0.456919 1.865513 0.333088 
0.404128 1.911602 0.189672 
0.316664 1.518631 0.441438 
-0.166500 1.912008 -0.181090 
-0.328182 1.629439 0.450243 
0.017393 0.106008 0.316031 
-0.341701 1.366478 0.499843 
0.467352 0.365418 0.388153 
-0.323009 1.602124 0.448739 
0.471953 0.334267 -0.348318 
0.441593 0.497292 -0.548860 
-0.465101 1.253512 0.384307 
0.205424 1.703234 0.440217 
-0.463037 1.763302 -0.519281 
0.464992 1.708300 -0.102448 
0.289340 0.719987 0.441586 
-0.313778 0.174772 -0.550885 
0.471930 0.954688 0.193363 
0.471968 0.742613 0.219054 
-0.003150 1.413153 0.441171 
-0.399889 1.681520 -0.550134 
-0.236522 1.280829 0.441319 
-0.351603 1.868244 -0.543159 
-0.403238 1.911438 0.267007 
0.120436 0.105850 -0.460560 
-0.471969 1.147326 -0.043802 
0.465146 0.665347 0.348652 
-0.452560 1.892836 0.317812 
-0.022672 1.305745 -0.551682 
0.401932 1.117948 -0.551532 
-0.334337 1.390706 0.500763 
-0.467513 0.510527 0.406197 
-0.054413 1.121368 0.441196 
-0.167895 1.911850 0.265613 
0.471337 1.414167 -0.451135 
0.471888 0.333999 -0.427707 
-0.442974 0.164260 0.356259 
0.227852 1.891612 0.423737 
-0.324425 0.101640 -0.493062 
-0.468475 0.855003 0.342867 
0.455650 0.165560 0.354516 
-0.327014 1.866757 0.427996 
0.466841 0.584874 0.416140 
0.471895 0.659649 -0.477906 
-0.451641 1.226565 0.433804 
0.428988 1.706280 0.439248 
-0.337108 1.253722 0.441850 
-0.472175 0.589066 -0.229915 
-0.464148 1.643329 0.412392 
-0.044912 0.662005 -0.551616 
-0.429689 1.910748 0.057751 
0.462115 1.760293 0.382849 
-0.472094 0.402360 -0.336569 
-0.472076 0.405791 0.188770 
0.471555 0.875565 -0.498268 
-0.471050 1.518937 -0.282844 
0.455073 0.195638 -0.542944 
-0.471170 1.492726 -0.334911 
-0.300034 1.900838 0.374938 
-0.404406 0.104959 -0.399356 
-0.139779 1.911989 -0.260320 
0.448926 1.883206 0.414608 
0.233835 0.291051 0.441194 
-0.471649 1.280124 0.271655 
-0.467581 0.565947 0.398927 
-0.093174 0.105890 -0.056816 
-0.466146 1.654176 -0.470807 
-0.470888 1.544061 0.034379 
0.442175 0.929541 -0.548593 
-0.109306 1.440793 0.441348 
-0.324838 1.911843 0.161983 
0.467324 1.627478 -0.021721 
-0.213920 1.442677 0.441351 
-0.467451 0.510869 0.388339 
-0.329988 0.599542 0.540260 
-0.349660 0.727060 0.526936 
0.178771 1.702968 0.440215 
0.113333 0.795682 -0.551658 
-0.021641 1.198628 -0.551644 
-0.364001 0.446740 0.547331 
-0.249466 1.748064 0.439120 
0.463712 1.625506 0.378101 
0.463611 1.385101 0.377165 
-0.155786 1.386098 -0.551724 
-0.447698 1.879629 0.419675 
0.453823 0.894373 0.366103 
-0.055720 1.387015 0.441176 
-0.177323 0.609286 -0.551632 
0.260607 0.105862 0.323027 
-0.191773 0.754587 0.439702 
0.352778 1.911669 0.109735 
0.471642 1.306285 -0.477340 
0.467333 1.627301 0.032114 
-0.390557 1.386482 -0.551535 
0.462332 1.089209 0.428246 
0.471939 0.415625 -0.452097 
-0.397586 1.654594 -0.550457 
0.462171 1.760907 0.412387 
0.080063 1.573877 -0.551354 
0.471991 0.875266 -0.022338 
-0.377203 1.911664 0.083647 
0.472026 0.689371 0.218816 
0.468072 0.364216 0.343083 
-0.107075 1.253958 0.441263 
-0.111346 0.175862 0.438289 
-0.456371 1.873321 0.084638 
-0.466480 0.786234 0.347120 
-0.032605 0.198770 0.440721 
0.047051 0.350286 0.441213 
0.376275 1.279396 -0.551567 
0.472051 0.524962 -0.050874 
0.172218 1.911975 0.029623 
0.183104 0.853089 0.431179 
0.332162 0.105208 -0.332612 
0.467032 1.627161 0.221493 
0.413858 0.098700 0.233787 
-0.167501 0.149930 0.356194 
-0.168872 0.113150 0.351894 
-0.324401 1.076029 0.501724 
0.466860 0.144863 0.193411 
0.470737 1.520064 0.140173 
-0.417118 0.506894 0.441787 
0.460545 0.391948 0.353809 
-0.370223 0.029240 0.251091 
-0.096429 0.105815 -0.406021 
-0.353585 1.365017 0.543770 
0.424399 1.387177 -0.551349 
-0.441434 0.263531 -0.548689 
-0.338604 1.124005 0.492291 
-0.242289 1.787939 -0.548577 
-0.377531 1.035492 0.442391 
0.405143 0.105610 -0.026847 
-0.471027 1.519338 -0.335380 
-0.136259 1.467767 0.441409 
-0.162251 1.787892 -0.548577 
-0.471990 0.592242 0.164694 
0.463186 0.447720 0.372840 
-0.429241 0.106013 -0.214783 
-0.471929 0.352729 0.240425 
-0.114091 1.911917 -0.154779 
-0.285699 0.105655 0.234693 
-0.456175 1.594566 0.364863 
0.331724 0.113737 -0.537526 
-0.135717 0.860512 0.431640 
0.453706 0.113230 0.000990 
0.093151 0.105849 -0.327319 
-0.237413 1.546755 -0.551556 
-0.465193 1.673933 0.274517 
-0.159361 1.280773 0.441282 
0.466680 0.255117 0.416232 
0.466338 0.667375 0.420757 
-0.388754 0.557918 -0.551515 
-0.360041 1.340767 0.542810 
-0.408756 0.101199 -0.513473 
0.465258 1.680452 0.167131 
0.291775 1.171479 0.441260 
-0.140461 1.911881 -0.128342 
-0.471907 0.988694 0.061473 
-0.230640 0.824365 -0.551631 
-0.472101 0.428797 -0.336052 
0.466775 0.310565 0.415799 
0.115925 0.444911 -0.551593 
0.127434 1.844004 -0.546778 
0.376072 1.037263 -0.551516 
0.424547 0.105605 0.168837 
-0.291408 0.167233 0.436383 
-0.465105 1.706214 -0.393353 
0.085434 1.037618 -0.551643 
-0.368286 0.741121 0.509313 
-0.470702 0.783163 0.330415 
-0.086327 1.911805 -0.365772 
-0.472057 0.614588 -0.333630 
0.470518 1.358323 0.334278 
0.285517 0.158295 0.372054 
0.464306 1.733583 0.194019 
-0.217372 1.911927 -0.497249 
0.276587 0.105773 -0.137354 
-0.465301 0.264727 -0.539065 
-0.117695 0.105997 0.232289 
-0.370685 0.690012 0.501330 
-0.225909 0.105910 -0.055657 
-0.472012 0.326326 -0.049534 
0.099888 0.185190 0.439829 
-0.471883 1.306418 -0.306665 
0.471809 1.305672 -0.129043 
-0.328125 0.571480 0.497800 
0.444115 1.902080 -0.102427 
-0.233246 0.176527 -0.550849 
0.379999 1.911695 -0.393981 
-0.424634 0.890675 0.433751 
-0.097211 0.112155 -0.533635 
-0.471326 1.015566 0.318570 
0.402390 1.225600 -0.551589 
0.218965 0.822233 -0.551617 
0.378927 0.105584 -0.081788 
-0.370997 0.992385 0.487434 
-0.464013 1.546562 0.422231 
-0.471910 1.146735 -0.332017 
-0.471231 1.413089 0.296104 
-0.471779 0.512236 0.292879 
0.424772 0.956494 -0.551406 
0.092891 0.105863 -0.137966 
-0.472099 0.641441 -0.307458 
0.004360 1.252179 -0.551673 
-0.371456 0.728215 0.459478 
-0.471775 1.359575 -0.280967 
-0.270419 1.900178 -0.536371 
0.419137 0.057572 0.306349 
0.340893 0.073700 0.323891 
-0.471862 0.247373 0.213079 
-0.330212 0.973141 0.493283 
0.472114 0.416304 -0.078481 
0.258137 1.730317 0.439531 
-0.400445 0.000866 -0.470759 
0.264828 0.957626 0.439602 
0.311137 0.164450 0.356405 
-0.316998 0.153983 0.388168 
-0.354417 0.003960 0.285724 
-0.472016 0.645141 0.112306 
-0.211601 1.573493 -0.551379 
0.471590 1.223939 0.298694 
-0.145766 0.105920 0.076972 
-0.455285 0.801649 0.424579 
0.126472 1.649908 0.441093 
0.471765 1.332636 -0.155963 
0.403343 1.521962 -0.551348 
-0.337197 1.172582 -0.551548 
0.224344 1.911916 0.187580 
-0.472071 0.721010 -0.332852 
-0.163845 0.354500 0.441410 
0.470665 0.391575 0.332220 
0.153770 0.401337 0.441502 
0.402486 1.468021 -0.551432 
0.421585 1.900056 0.399020 
-0.370754 1.317178 0.511406 
0.424954 0.122136 -0.544263 
-0.071746 0.742855 -0.551645 
0.459292 1.733924 0.428328 
0.076535 1.412652 0.441203 
0.220569 0.606475 -0.551596 
0.442021 0.109196 -0.218223 
0.406991 0.105472 -0.302840 
0.323694 0.983520 -0.551537 
-0.349801 1.630441 0.497113 
0.453359 0.392442 0.367859 
0.323299 1.144892 -0.551558 
-0.429688 1.910870 0.031358 
-0.361491 1.172166 0.442126 
-0.339550 1.195979 0.495129 
0.464044 1.761758 -0.075674 
0.472146 0.388785 -0.267245 
-0.261064 0.153055 -0.550007 
-0.174031 0.105830 -0.164064 
-0.465110 0.299050 0.426769 
0.199100 0.105892 -0.002275 
0.211424 1.682080 -0.550269 
0.230019 0.105745 -0.383630 
0.470966 1.441169 -0.499314 
-0.471063 1.517773 0.034520 
-0.472001 1.200414 0.008883 
-0.472181 0.456277 -0.257799 
0.445151 0.821527 0.380689 
-0.442077 0.271445 0.437730 
-0.428933 0.154543 0.403783 
0.471947 1.063261 0.005166 
0.024179 1.333238 0.441144 
0.471048 1.090949 -0.515754 
-0.441225 1.039415 -0.548851 
0.329392 0.361714 -0.551410 
-0.425976 0.105408 0.190687 
-0.147135 0.105866 -0.137217 
0.210286 1.385608 0.441191 
0.119297 0.153732 -0.550136 
-0.371428 0.422782 0.469496 
0.471980 0.663001 0.245382 
0.178588 0.105769 0.299969 
-0.472071 0.537381 -0.073307 
0.454200 0.659797 -0.543800 
0.119652 0.127463 -0.546143 
-0.415323 0.054363 -0.498966 
-0.328125 0.444453 0.445313 
-0.341332 0.157790 0.356315 
0.403742 0.105655 0.140177 
-0.471252 1.438960 0.167378 
-0.464249 1.752831 0.006363 
-0.460758 1.834365 0.217483 
0.261111 0.506602 0.441798 
0.131226 1.092932 0.441268 
-0.459860 1.832160 0.341220 
0.463242 1.790213 -0.263256 
-0.472066 0.220829 -0.237303 
0.352097 0.032177 0.251767 
0.413513 1.760117 0.438588 
0.070511 0.106000 0.279159 
-0.472065 0.855244 -0.149480 
-0.383727 0.105453 -0.298874 
0.472032 0.470073 -0.346249 
-0.248265 1.851395 0.430432 
0.354621 1.901815 0.384835 
0.428338 1.760439 0.438204 
-0.472192 0.721888 -0.228720 
-0.247869 1.896537 0.418752 
0.453656 1.652242 0.432919 
0.434607 0.667532 0.439472 
0.166797 0.714658 -0.551626 
-0.393077 0.022162 -0.436222 
-0.190550 1.911488 -0.523437 
0.207288 0.372888 0.441407 
-0.219166 1.548749 0.441596 
0.349756 1.279352 -0.551572 
-0.377935 0.441622 0.443066 
-0.324099 1.414425 0.515270 
0.350004 1.467766 -0.551638 
0.406181 0.105215 -0.382705 
0.126224 0.153986 0.394922 
0.460021 1.842683 0.296693 
0.149472 1.855922 0.429724 
-0.219324 0.155088 0.356233 
0.181857 0.747449 0.440576 
-0.465693 1.675167 -0.046123 
-0.232188 1.145540 -0.551620 
-0.149421 0.105834 -0.299296 
0.471660 1.359977 -0.317365 
0.461712 1.820162 -0.397466 
-0.464208 1.753781 -0.099783 
-0.323998 0.673913 0.522777 
-0.415355 0.030124 0.266606 
0.464038 0.251379 -0.539838 
0.472026 0.334765 -0.106139 
-0.465837 0.482887 0.423778 
0.336751 0.165278 0.370564 
-0.140097 1.622878 0.441462 
-0.470897 1.544268 -0.071701 
-0.464674 1.594564 0.374993 
-0.009823 0.106052 0.278955 
0.472172 0.686828 -0.157364 
0.351105 0.794959 -0.551548 
-0.456007 1.876621 -0.206840 
-0.470795 0.702029 0.332662 
-0.113295 0.154423 0.377947 
0.263454 0.851740 0.431076 
-0.195562 1.723419 0.439788 
-0.471614 1.333234 0.220218 
0.468396 0.361186 -0.529425 
0.460091 1.841083 0.331204 
0.119411 0.105810 -0.165066 
0.471107 1.439116 0.247457 
-0.467575 0.908771 0.344989 
-0.285708 1.279347 -0.551638 
-0.471786 0.320389 -0.465197 
0.349706 1.602352 -0.551089 
-0.177497 0.105823 -0.352961 
-0.362350 0.718248 -0.551545 
0.353816 0.105610 -0.000051 
0.429678 1.910787 -0.421020 
0.467519 0.666940 0.393476 
-0.460684 1.834543 0.243897 
-0.423553 0.081372 0.321178 
0.454314 1.861448 0.403274 
-0.327220 0.101033 0.243003 
-0.471818 1.359458 -0.202304 
0.471767 0.794945 0.084811 
-0.199571 0.105966 0.182608 
0.447243 0.640197 0.436010 
0.370348 0.772462 0.436707 
-0.118702 0.106010 0.129155 
-0.069283 0.105831 -0.406212 
-0.127101 1.172023 -0.551671 
-0.258635 1.172356 -0.551621 
-0.295445 0.382917 0.441806 
-0.144166 0.514990 0.441663 
-0.328125 0.685291 0.492224 
-0.350381 0.010049 0.268848 
-0.371256 0.714521 0.456570 
-0.319179 0.142225 0.356222 
0.471247 1.414179 -0.476606 
0.089278 0.445137 -0.551584 
-0.067139 0.105889 -0.137635 
0.356581 1.889955 0.424384 
-0.240268 0.189244 0.440408 
-0.462050 1.813854 -0.395039 
-0.351039 1.761932 -0.549081 
-0.472011 1.147134 -0.148965 
0.247524 0.552267 -0.551560 
0.439342 1.894048 0.377120 
-0.046063 0.903832 -0.551610 
-0.070845 0.473593 -0.551579 
0.328073 1.911678 0.318253 
0.471917 0.714864 0.111338 
0.066102 0.105831 -0.433843 
-0.193250 1.911938 -0.049073 
0.467394 0.530121 0.406848 
-0.399375 0.069214 0.325428 
0.472011 0.415650 -0.426192 
0.173058 1.911835 0.265698 
-0.112180 1.911963 -0.418383 
0.259245 0.166306 0.357697 
-0.471584 1.306733 0.271843 
-0.471974 0.800459 -0.384418 
-0.370498 1.414643 0.506824 
0.444256 0.109706 -0.507654 
-0.470000 0.218954 0.337295 
-0.295577 0.143528 0.356213 
0.472174 0.659842 -0.157520 
-0.471916 1.066988 -0.305861 
0.096340 0.105914 0.206069 
-0.421436 1.064354 0.440797 
0.280176 1.880871 0.425877 
0.243551 1.225469 -0.551645 
-0.457961 1.790585 -0.534460 
0.345821 1.009508 0.441438 
0.404078 1.911552 -0.075844 
-0.464610 1.093430 0.381400 
0.472193 0.659738 -0.211109 
-0.464338 1.735027 -0.477961 
0.385718 0.038183 0.321084 
-0.389548 0.288746 -0.551190 
-0.009588 1.911828 -0.102194 
0.471893 0.199001 -0.243691 
-0.422337 0.098497 -0.510120 
-0.330714 1.628915 0.515853 
0.009263 0.445843 -0.551576 
-0.441264 0.424819 -0.548921 
-0.472214 0.351183 -0.233772 
0.472073 0.821516 -0.156701 
0.049402 1.789535 -0.548519 
-0.151323 0.797052 -0.551661 
-0.030685 1.842975 -0.546988 
0.126865 0.535971 0.441651 
-0.350727 1.911979 -0.207257 
0.471538 0.363826 0.316430 
-0.029083 0.936973 0.437806 
-0.091880 0.106019 0.128828 
0.277501 0.105670 -0.219752 
-0.472168 0.247013 -0.210043 
-0.309625 0.744569 -0.551563 
-0.350608 1.911864 -0.419630 
-0.344099 0.395036 0.467101 
-0.471864 0.352681 0.266106 
-0.257581 0.105762 -0.327522 
-0.402454 1.896567 0.418008 
0.198117 1.911955 0.029681 
0.385756 0.003757 0.259633 
-0.384069 0.105495 -0.188655 
-0.465316 0.345091 -0.539055 
0.470654 0.746149 0.332915 
0.452319 1.706632 0.432721 
0.470187 1.573749 0.140097 
-0.298870 1.911801 0.266054 
-0.061685 1.874010 0.426954 
0.147660 1.910655 0.343749 
-0.007931 0.165281 0.370853 
-0.468353 1.466405 0.344009 
-0.088674 1.911788 0.082232 
0.258179 1.867842 -0.543301 
-0.339132 1.171944 0.494286 
-0.472144 0.696416 -0.098045 
-0.257462 0.958392 -0.551591 
-0.455219 0.837549 0.377500 
0.471915 0.307759 0.217694 
-0.070423 0.257492 -0.551061 
0.151210 0.105952 0.279049 
-0.471969 0.618728 0.138503 
-0.472047 1.173635 -0.175243 
0.459933 1.843159 -0.075752 
-0.207704 1.332669 -0.551692 
-0.054439 1.227190 0.441178 
-0.287226 1.226783 0.441494 
-0.432350 1.805726 0.435572 
0.349740 1.091095 -0.551550 
0.468493 1.064056 -0.529287 
0.172845 1.911836 0.239611 
-0.370821 0.651199 0.523436 
-0.471257 1.041743 0.318416 
-0.219199 1.911904 -0.154587 
0.471580 1.385932 0.032476 
-0.371143 0.399525 0.458356 
0.303055 1.910484 0.343750 
-0.442005 0.109149 0.082179 
-0.471752 1.279686 -0.488142 
0.433788 0.503863 0.439886 
0.234146 0.426242 0.441623 
0.427055 0.869741 0.432222 
-0.471033 0.169464 0.135565 
0.016672 1.911786 -0.128608 
-0.471899 0.619914 0.270179 
0.063694 0.310170 -0.551313 
0.088437 0.553241 -0.551604 
-0.472112 0.828529 -0.175798 
0.472089 0.334500 -0.268090 
0.385038 0.000385 -0.474192 
0.275832 1.911833 -0.102407 
-0.464826 1.672591 0.338756 
-0.468331 1.440034 0.344297 
-0.088069 1.776734 0.438179 
-0.467622 1.623173 -0.098800 
0.415394 0.106010 0.340458 
0.200778 0.152904 -0.550036 
0.017008 1.891781 0.424141 
0.036482 0.364500 -0.551502 
-0.462609 1.805973 -0.126673 
0.468897 1.600500 0.113050 
-0.084552 0.220946 0.440986 
-0.471742 1.332980 0.061551 
0.471870 1.279263 -0.370768 
-0.340221 1.340767 0.542465 
0.464021 1.760024 0.112334 
0.357010 0.105319 -0.333115 
0.166255 0.795478 -0.551633 
0.470918 0.664918 0.331639 
-0.370986 1.463133 0.513770 
-0.380484 0.065738 0.242275 
0.459695 0.364950 0.370544 
-0.054709 1.042720 0.441253 
0.016997 1.911927 -0.181372 
0.471980 0.334856 0.029220 
0.471943 1.171113 -0.102183 
-0.472009 0.405694 0.083441 
-0.472050 0.747409 -0.358673 
0.471696 1.251316 0.113162 
0.059765 0.903431 -0.551624 
-0.453646 1.890505 -0.074195 
-0.465122 0.271032 0.426470 
0.128513 0.774461 0.436443 
0.068251 0.105986 0.102331 
0.466211 0.144919 0.340037 
0.139467 0.849398 -0.551657 
0.472123 0.443396 -0.105255 
0.172320 1.911753 0.134878 
0.329549 1.901421 0.375937 
0.289440 0.772254 0.436767 
0.379382 0.105596 -0.027104 
-0.471801 0.247571 0.161240 
0.172299 1.911967 -0.023136 
0.297111 1.037346 -0.551575 
-0.471781 0.962637 0.246784 
0.462626 0.923362 0.406536 
-0.318455 0.158279 0.356323 
-0.471361 1.120587 0.317955 
0.384493 0.223572 -0.550873 
0.441199 1.706454 0.435674 
-0.465435 0.398562 -0.539061 
-0.368661 0.097167 -0.512212 
-0.466465 0.326556 0.419004 
-0.036351 1.911816 0.160866 
0.378497 1.911741 0.162884 
0.461249 1.794374 -0.525993 
0.471514 1.331999 0.113231 
-0.471672 0.909705 0.272588 
0.065875 0.105844 -0.486545 
-0.464994 1.700886 0.113339 
0.356682 0.148146 -0.549561 
-0.472006 0.512271 0.216563 
-0.413790 0.084458 0.238501 
0.459784 1.787962 0.423019 
-0.471849 0.273456 0.239277 
0.065536 0.112363 -0.534152 
-0.373737 1.681229 -0.550261 
-0.300775 1.866195 0.428070 
0.344937 1.278332 0.441380 
-0.113294 1.911947 -0.286715 
0.468089 1.522244 -0.528794 
-0.357352 0.105584 -0.080983 
0.112535 0.930138 -0.551645 
0.454968 1.821226 -0.538077 
0.444410 0.814252 0.370817 
-0.039838 0.105927 -0.057060 
0.011091 0.139519 -0.548440 
-0.471416 0.169475 -0.185492 
-0.330408 1.029380 0.477533 
0.471928 0.929251 -0.343401 
-0.408824 0.008406 0.262223 
0.323170 1.494531 -0.551696 
-0.332989 0.395221 0.492832 
-0.413737 0.011283 -0.470931 
-0.381425 0.362081 0.441882 
0.433428 1.358468 0.438941 
-0.471321 0.612609 -0.514072 
-0.371100 1.414555 0.513410 
-0.178412 0.231094 -0.550937 
0.138540 1.010674 -0.551639 
-0.168349 1.910595 0.343749 
0.344504 1.358647 0.441294 
0.174152 0.105925 0.077541 
0.237926 0.958140 0.439657 
-0.266331 1.653902 -0.550624 
-0.470946 1.386430 -0.514122 
-0.471737 1.359374 -0.070616 
0.466976 0.611719 0.381762 
0.462029 0.229243 0.431137 
0.329831 0.105033 0.190385 
0.367924 0.450519 0.442269 
0.468481 1.603482 -0.516497 
-0.470257 1.570421 0.194031 
-0.146866 0.105900 -0.110247 
0.472033 0.794759 -0.022676 
0.463191 1.791068 -0.317039 
-0.464067 0.990681 0.379622 
-0.335249 1.366512 0.499885 
-0.418991 1.858160 0.429200 
-0.472049 0.934146 -0.279920 
-0.325666 1.413616 0.535227 
0.276271 1.911831 0.240213 
0.471281 1.467182 -0.183054 
-0.464305 1.146412 0.379317 
-0.028071 1.227077 0.441159 
0.467419 0.310344 0.407142 
0.429676 1.910853 -0.446867 
-0.434183 1.015745 0.438834 
-0.367180 0.494361 0.500979 
-0.396511 0.867004 0.432181 
0.354813 0.007986 -0.489325 
-0.250705 1.695814 0.440443 
-0.472168 0.670536 -0.019397 
0.457248 1.250832 0.366584 
-0.200201 0.105889 -0.136824 
-0.465142 1.673527 0.298550 
0.045440 1.727837 0.439556 
-0.325103 0.448100 0.540584 
0.272975 0.660275 -0.551584 
0.376244 0.983456 -0.551512 
-0.059757 1.911818 -0.392104 
0.260934 0.425597 0.441716 
-0.098222 0.743024 -0.551657 
0.471923 1.010040 -0.369968 
-0.292829 0.154426 0.378372 
-0.381194 0.029294 0.251019 
-0.465583 1.387031 0.350222 
0.471680 0.225527 0.164702 
-0.078062 1.493139 -0.551745 
-0.098437 0.796734 -0.551661 
-0.451487 0.112786 0.214489 
0.439013 1.685302 -0.547369 
0.159140 1.627946 -0.550844 
-0.034720 0.486692 0.441443 
0.444783 1.251035 0.435697 
-0.425787 0.093548 0.311993 
0.425407 0.094778 -0.454863 
-0.172428 0.106000 0.156145 
0.466927 0.722630 0.414825 
-0.471978 0.348081 -0.414405 
-0.471904 0.909434 0.061220 
0.047679 0.749324 0.440146 
-0.441515 1.903039 -0.286976 
-0.325429 1.574185 0.456280 
-0.337381 1.473377 0.441783 
-0.464617 1.731840 -0.339555 
-0.469297 1.596517 0.060656 
-0.472146 0.696636 -0.071783 
0.470356 1.574685 -0.183159 
0.344768 1.305120 0.441341 
-0.472006 1.094047 -0.148932 
-0.344544 0.044691 0.316718 
-0.205901 1.145464 -0.551631 
0.425304 1.522062 -0.551102 
-0.140844 0.163392 0.356253 
-0.062013 1.896072 0.370064 
0.472029 0.929030 -0.075843 
0.178237 1.729314 0.439587 
-0.344685 0.029927 0.275743 
-0.166243 1.912014 -0.233905 
-0.219701 1.911951 0.030051 
0.471996 0.497228 -0.319338 
-0.093601 0.105898 -0.110572 
0.463332 1.788346 -0.048929 
0.444271 1.840546 0.428425 
-0.472009 0.774234 -0.332574 
0.328864 0.388990 -0.551453 
0.044861 1.911742 -0.365890 
-0.369672 0.651633 0.531808 
-0.325838 1.896683 0.370183 
0.378508 1.911536 0.318766 
-0.461787 0.537506 0.431299 
0.453272 1.572513 0.433427 
-0.449923 0.327306 0.435108 
-0.461139 0.215793 0.431692 
-0.415311 0.183015 0.439340 
-0.327314 1.828746 0.433501 
-0.352735 0.083536 0.328722 
-0.330720 1.076871 0.490581 
0.472142 0.334704 -0.160240 
-0.324027 0.450894 0.519948 
0.402169 1.198680 -0.551582 
-0.010154 1.911671 0.108390 
-0.177589 0.743565 -0.551646 
0.470450 1.250817 0.335129 
0.407034 0.030603 -0.434730 
0.371643 0.901232 0.434846 
-0.463562 1.736356 -0.519016 
-0.293838 0.167513 0.364209 
-0.028607 0.989681 0.441139 
-0.323865 1.015262 0.493195 
0.198256 1.911925 -0.049521 
0.291925 1.010544 0.441357 
0.465217 1.680441 0.194366 
-0.449851 0.808595 0.370780 
-0.278067 1.694139 0.440480 
-0.472065 1.200153 -0.201525 
-0.472106 0.907713 -0.253894 
0.472160 0.605693 -0.211473 
0.093057 0.105856 -0.486576 
0.472045 0.982865 -0.129349 
-0.464861 1.546929 -0.539061 
-0.458031 1.861181 -0.286844 
0.445264 1.901105 0.243425 
0.403123 0.821838 -0.551554 
0.472045 0.472232 0.191027 
0.283609 0.115299 -0.540061 
-0.359293 0.748553 0.490094 
0.471896 1.144532 -0.290013 
-0.205482 0.105784 -0.379696 
-0.362623 0.423369 -0.551467 
-0.388708 0.664978 -0.551562 
0.331636 0.196261 -0.550892 
-0.358058 0.105454 -0.216398 
-0.350780 1.911858 -0.154252 
0.050953 1.708321 -0.549914 
-0.284090 0.340910 -0.551389 
-0.262591 1.361927 0.441308 
-0.467596 0.483780 0.396446 
0.264662 1.251973 0.441236 
-0.041370 0.105836 -0.272541 
-0.390320 0.176520 -0.550771 
0.466110 0.694774 0.422453 
-0.465440 1.279613 -0.539062 
0.456222 1.438682 0.357474 
0.436365 0.801072 0.431216 
0.369527 0.823328 0.431717 
-0.463282 0.118402 0.109349 
0.073010 0.510575 0.441526 
-0.441889 0.109174 0.109519 
0.317875 1.331974 0.441273 
0.063465 0.337196 -0.551433 
-0.095985 0.105837 -0.352788 
-0.151509 0.204227 -0.550949 
0.205722 1.867839 -0.543256 
0.471910 1.009987 -0.316658 
-0.136931 1.494179 0.441459 
-0.296033 0.981495 0.441471 
0.437234 0.107556 0.221808 
0.429689 1.910626 -0.394835 
0.013687 0.105937 -0.030366 
-0.470770 1.517938 0.167372 
-0.464195 1.755653 -0.206027 
0.042585 1.911662 0.317703 
0.120307 0.105859 -0.486435 
-0.081728 1.360583 0.441197 
0.471015 1.466263 0.167103 
0.471063 1.494997 -0.371823 
-0.471870 0.831198 0.193304 
0.471926 0.389546 0.083320 
-0.471830 0.986498 -0.461980 
0.112848 0.876380 -0.551653 
0.467487 0.502548 0.389408 
-0.230387 0.475312 -0.551561 
-0.142061 0.122085 0.355859 
-0.436195 0.107363 0.215723 
-0.471575 0.962753 0.297458 
-0.471194 1.439121 0.220405 
0.472120 0.416605 0.029459 
0.471602 0.902498 -0.498329 
0.077999 1.173250 0.441150 
0.471502 1.413142 -0.102195 
-0.449827 0.859208 0.425618 
-0.241099 0.158180 0.432758 
-0.315071 1.089170 0.441703 
-0.355149 0.423346 0.546950 
-0.009453 1.911819 -0.128570 
-0.471685 0.831560 0.246451 
0.471915 0.981595 0.193485 
-0.103007 1.386063 -0.551742 
0.075915 1.465618 0.441271 
-0.246056 1.911791 0.082761 
-0.302692 0.696806 0.442049 
0.309490 0.105122 0.325222 
-0.172332 0.105933 0.181988 
0.038983 0.105838 -0.433658 
-0.464242 1.753167 -0.046713 
-0.470929 1.517814 0.087627 
-0.225231 0.105849 0.302056 
-0.009094 1.898565 0.411070 
-0.115218 1.911852 0.265547 
-0.471749 0.352651 0.290710 
0.368063 0.586258 0.442036 
-0.432881 0.113283 0.350567 
-0.387908 0.154103 0.397080 
-0.439921 1.866802 -0.540994 
-0.150871 0.635933 -0.551636 
-0.471169 1.306805 0.316133 
-0.226993 0.105996 0.183393 
-0.470003 1.569774 0.314986 
-0.323937 1.365665 0.525581 
0.471952 0.445737 0.270346 
0.471712 1.359759 -0.236708 
0.045875 0.154788 0.414575 
-0.390769 1.413215 -0.551525 
-0.115266 0.130902 0.356018 
-0.471003 0.239053 -0.515551 
-0.459803 1.736708 -0.535969 
0.200504 0.105834 -0.301823 
0.245220 0.849091 -0.551606 
-0.008057 0.512584 0.441433 
0.227534 1.899766 0.405500 
-0.124380 0.230943 -0.551044 
-0.464213 1.752794 0.059486 
-0.441889 1.439955 -0.548638 
0.471378 1.440714 -0.290761 
0.259668 0.105858 0.232055 
0.431283 0.278894 -0.550826 
-0.370624 1.268114 0.509591 
0.429294 0.163236 0.370393 
-0.358466 1.563539 0.494045 
0.465535 1.680964 -0.021832 
0.472075 0.659611 -0.344732 
0.304033 1.896653 0.370233 
0.244623 0.956737 -0.551583 
-0.174408 0.105801 -0.191132 
0.259493 0.154073 0.395919 
-0.084336 0.805022 0.432632 
-0.455501 1.830669 0.371715 
-0.370428 0.722892 0.518853 
0.329319 0.097506 -0.481084 
0.027687 1.520076 -0.551640 
0.471895 0.280154 0.217776 
-0.461661 1.779049 0.412584 
0.020629 0.269852 0.441013 
0.418780 1.116602 0.440769 
0.279660 1.896984 0.416915 
-0.467462 0.353138 0.392938 
-0.465643 1.678642 -0.338639 
0.261462 0.105765 0.297288 
-0.371207 0.424015 0.496903 
0.453865 1.171729 -0.543800 
0.467198 0.145190 -0.299736 
-0.417197 0.101033 0.231593 
-0.456471 1.873408 0.005297 
-0.127585 1.225544 -0.551697 
-0.471792 0.620121 0.294487 
-0.388744 0.584690 -0.551534 
-0.248154 0.115474 0.353481 
0.302269 0.105718 -0.055265 
0.010188 0.283721 -0.551128 
-0.127850 1.252301 -0.551706 
0.157211 1.332545 0.441189 
-0.370619 0.471253 0.539604 
-0.431521 0.430428 0.440616 
0.411861 0.845958 0.430751 
-0.360858 0.972359 0.482732 
-0.471645 1.412497 -0.202710 
-0.348705 1.552266 0.501775 
0.471536 1.170070 0.298752 
0.453960 1.888375 -0.155822 
0.366300 0.000723 0.276144 
0.471588 0.664553 0.315994 
-0.433818 1.890190 0.367123 
-0.456078 1.387353 0.365287 
-0.471927 1.040289 -0.331925 
0.396988 0.008297 0.314087 
0.471484 1.306299 -0.499980 
0.237085 1.385548 0.441196 
0.016824 1.900348 0.402209 
0.176584 1.912010 -0.444861 
0.472082 0.444924 0.190977 
0.153740 0.481972 0.441604 
-0.035462 1.911855 -0.154908 
0.472019 0.982827 -0.102519 
-0.472027 0.829813 0.008069 
-0.471862 1.039902 -0.435980 
-0.261892 1.280816 0.441360 
-0.435337 0.772180 0.435405 
-0.314549 0.988647 0.442779 
0.288116 0.560022 0.441953 
-0.421525 1.898031 0.408157 
0.471976 0.982532 0.031822 
-0.426605 0.105869 0.109579 
-0.356994 0.105271 0.164851 
0.464310 1.304725 0.418625 
-0.439483 0.327679 0.438482 
0.346060 0.026537 -0.466817 
-0.146424 0.105889 -0.056437 
0.446939 0.585379 0.436039 
0.432636 1.572404 0.439593 
-0.458259 1.860025 -0.260082 
-0.317336 0.158271 0.372009 
-0.472051 0.326096 -0.102492 
0.454422 0.848676 -0.543803 
-0.448699 0.354616 0.435466 
0.286394 0.164490 0.435549 
-0.008399 0.591397 0.441465 
0.467237 1.629413 -0.318243 
-0.471894 1.066633 -0.409991 
-0.471223 1.491748 -0.150633 
-0.297551 0.472794 0.441815 
-0.213559 0.918814 0.436365 
0.283797 0.105645 0.210258 
-0.363472 0.114203 0.352633 
0.471968 1.117407 -0.155945 
-0.358670 0.727513 0.527121 
0.441236 0.778292 0.433407 
-0.115810 0.108027 0.344728 
-0.335785 1.623779 0.537384 
-0.471949 0.506921 -0.437679 
-0.357237 1.050241 0.533519 
-0.365027 1.413172 -0.551591 
-0.213499 0.891489 0.434071 
-0.470854 1.520133 -0.464529 
0.461429 0.556602 0.371010 
0.402192 1.414094 -0.551458 
0.392714 1.818670 -0.547756 
0.249908 1.911939 -0.049471 
0.022061 1.844026 -0.546841 
-0.296908 1.842400 -0.546976 
-0.471589 1.386439 -0.437092 
-0.471982 1.226821 -0.096543 
0.453974 1.886505 0.270070 
-0.426891 1.817066 -0.547398 
-0.341076 0.154064 0.397915 
0.039130 0.105840 -0.380334 
0.470824 0.843672 0.332209 
-0.175309 0.105782 -0.245322 
0.124789 0.106015 0.317236 
-0.471230 1.119635 -0.513817 
0.297317 0.983555 -0.551559 
-0.035128 1.911964 -0.207671 
0.331001 1.911954 -0.445603 
0.369882 1.598572 0.441613 
-0.394871 0.894900 0.434335 
0.361381 1.812686 0.435570 
-0.336357 0.067319 0.273638 
-0.287686 1.439781 -0.551686 
-0.453366 0.134118 0.354690 
-0.159609 1.147744 0.441301 
-0.338137 0.599586 0.540472 
0.304350 0.279846 -0.551088 
0.104591 1.173032 0.441165 
0.463044 1.733658 0.400403 
0.201796 1.880554 0.426028 
-0.426095 0.093945 0.296318 
0.285436 0.142017 0.356186 
0.353823 0.105506 -0.164134 
0.069631 1.877198 0.426517 
-0.325595 1.892551 0.358568 
-0.441192 0.181410 -0.548303 
-0.185796 1.147528 0.441305 
-0.472032 0.273983 -0.023672 
0.179750 0.154096 0.386015 
0.047413 1.597151 0.441434 
0.187510 1.547478 -0.551515 
-0.358894 0.105331 -0.328830 
0.059921 0.876563 -0.551638 
0.327394 1.911877 0.214689 
-0.460883 1.833299 -0.179992 
0.405067 0.105523 -0.191131 
-0.390029 0.108355 -0.524770 
0.163833 1.225402 -0.551666 
0.471805 0.956271 -0.449163 
0.437108 0.111360 -0.528239 
-0.418726 0.535978 0.441625 
-0.279062 0.105943 0.106604 
0.450525 1.880845 0.389511 
-0.471675 1.385845 -0.070730 
0.389256 0.154924 0.414478 
0.465245 0.557698 0.426585 
-0.257896 0.567723 0.441827 
0.471705 0.875101 0.085184 
0.288817 1.571573 0.441564 
-0.206825 1.252444 -0.551686 
0.104597 1.681567 -0.550274 
-0.358288 1.058340 0.442229 
0.466784 0.338319 0.415529 
0.306172 0.105014 0.306722 
0.230293 0.107372 -0.521243 
-0.230275 0.556050 -0.551590 
0.391869 1.705714 0.439979 
-0.467079 0.456924 0.414391 
-0.323236 1.761632 -0.549104 
-0.422556 1.900787 0.387087 
-0.287311 0.175088 -0.550860 
0.462239 1.733888 0.419822 
-0.124336 0.105883 -0.504925 
0.362948 0.153987 0.387622 
-0.472065 0.614039 -0.385368 
0.471737 1.010157 -0.475243 
0.433400 0.585573 0.439973 
-0.465384 0.879361 -0.539065 
0.201307 1.899806 0.405717 
-0.110869 0.201153 0.440884 
0.233209 0.156859 0.430773 
0.359791 0.139561 0.356172 
-0.467189 1.622337 0.247845 
0.463854 0.223642 -0.539815 
-0.035959 1.911894 -0.049427 
0.411060 0.223405 -0.550923 
-0.408975 1.416446 0.441090 
-0.062502 0.105974 0.331974 
0.471465 1.116142 0.298360 
0.461425 1.813796 0.340322 
0.451792 1.786752 0.363824 
-0.471981 1.226551 -0.358304 
0.470090 1.573643 0.221082 
-0.007361 0.459317 0.441395 
0.472120 0.470188 -0.266220 
-0.243488 0.165272 0.370885 
-0.298231 1.911821 -0.101513 
-0.022963 1.332520 -0.551693 
-0.187929 0.862622 0.431840 
0.101110 1.844013 -0.546799 
-0.150816 0.393396 -0.551591 
0.423560 0.822368 0.431205 
-0.324822 1.050079 0.526249 
-0.088720 1.911706 0.108487 
-0.452415 0.484639 0.364693 
-0.459729 1.617940 0.431012 
0.468429 0.686785 -0.529643 
0.445386 1.901237 -0.235713 
-0.463271 1.779474 0.272473 
-0.091406 0.105949 0.180771 
-0.059969 1.648764 0.441032 
-0.470390 1.544055 0.296158 
0.452211 1.884028 0.346963 
0.471883 0.444275 0.110340 
-0.350642 1.911899 -0.260344 
0.142282 0.471759 -0.551572 
-0.324219 0.430687 0.473763 
0.035604 0.499639 -0.551568 
0.471862 1.063821 -0.316680 
0.296512 1.306143 -0.551631 
-0.472077 0.720786 -0.358806 
-0.256807 0.717348 -0.551621 
-0.283740 0.105628 -0.328153 
0.468681 0.637938 0.342335 
-0.467051 0.144084 -0.132553 
0.471872 1.117617 -0.289982 
-0.378653 1.885526 -0.540901 
-0.164792 1.912039 -0.444698 
0.172245 0.105866 -0.137858 
0.309721 1.884841 -0.541047 
-0.472040 1.120462 -0.201370 
-0.459791 1.843845 -0.479625 
0.282395 1.911481 -0.523436 
0.092853 0.105782 -0.219236 
0.471954 1.063506 -0.102332 
0.446073 0.812916 0.358551 
0.237609 1.305545 0.441199 
-0.140841 1.911997 -0.022869 
-0.462455 1.751184 0.411621 
-0.463525 0.965795 0.416661 
0.264857 1.198465 0.441216 
0.146429 1.911884 0.161027 
0.038735 0.105849 -0.486250 
-0.471966 1.146854 -0.279860 
0.341338 1.651572 0.441107 
0.471947 1.170936 -0.021520 
0.285057 0.105544 0.276322 
0.286308 0.105512 0.294446 
-0.467630 0.538204 0.397930 
-0.325739 1.317722 0.502441 
-0.350057 1.630265 0.514892 
-0.326653 1.896479 0.419258 
-0.413397 0.016974 0.304223 
-0.371281 1.580683 0.452832 
-0.136450 1.841270 -0.547106 
0.002256 1.439648 -0.551703 
0.343418 0.034892 0.271011 
0.454568 0.388503 -0.543730 
-0.192012 1.911856 -0.339505 
0.404822 0.551668 -0.551532 
-0.400359 0.088025 -0.423117 
0.146970 1.911928 -0.155176 
0.198473 0.105903 -0.110567 
0.425653 1.902130 0.352715 
-0.220147 0.729722 0.441380 
0.471992 1.009614 -0.048742 
0.016076 1.911863 0.213210 
0.472036 0.361961 -0.078866 
-0.371236 0.999080 0.463714 
0.410178 0.006737 0.279361 
-0.471762 0.989019 0.246767 
-0.327766 1.628015 0.461784 
0.471868 1.009309 0.058822 
0.007142 0.849907 -0.551634 
0.275811 1.911856 0.161731 
-0.370603 1.123483 0.504636 
-0.323321 0.418727 0.453804 
-0.084151 1.884694 -0.541054 
-0.036347 1.911888 0.187059 
-0.324190 1.147582 0.508740 
-0.425838 0.096847 -0.453019 
-0.471194 1.466553 -0.438061 
-0.466807 0.594059 0.417173 
0.068783 1.911709 0.317707 
-0.463596 1.781269 -0.179642 
0.216100 1.386526 -0.551674 
0.467530 0.448095 0.392448 
0.458359 0.118641 0.347612 
-0.468689 0.485116 0.341967 
0.212163 1.655138 -0.550569 
-0.305647 0.105641 -0.162789 
0.376096 1.171777 -0.551547 
0.029168 1.412894 -0.551711 
-0.146668 0.568095 0.441679 
-0.415403 1.119389 -0.551470 
0.471880 0.609332 0.270675 
0.450376 1.812722 0.358438 
0.299375 0.660185 -0.551557 
0.465570 1.061964 0.400443 
-0.359016 1.194762 0.536491 
0.471677 0.198528 -0.378237 
-0.186088 1.361411 0.441248 
0.471855 0.875441 -0.396762 
-0.471696 1.333071 -0.462508 
0.446432 0.311509 0.436146 
-0.471017 1.519534 -0.361524 
-0.036330 1.911857 0.213230 
-0.188234 0.248854 0.441183 
-0.333021 0.086145 -0.438814 
0.445695 1.901001 -0.022534 
0.247802 0.525200 -0.551541 
0.471347 1.412632 0.113268 
0.043178 1.876103 0.426696 
0.338092 1.844353 -0.546907 
-0.139431 1.911935 -0.313082 
0.465010 1.492691 0.411996 
0.148627 0.105995 0.129439 
-0.462737 1.751450 0.392680 
0.394316 1.652006 0.440998 
0.260757 0.344267 0.441382 
-0.456422 1.440796 0.365652 
0.405912 0.026191 -0.498431 
0.471648 0.497172 -0.499234 
-0.029405 1.761881 -0.549065 
0.425661 0.105700 -0.081395 
-0.423550 1.616374 0.440931 
0.471782 0.927008 0.247141 
0.122494 1.889242 0.424428 
-0.390931 0.175027 0.438072 
-0.297838 1.911898 -0.286828 
-0.471958 1.094308 -0.043810 
-0.357682 0.029267 0.318463 
0.468833 0.222291 0.341664 
0.270043 1.252358 -0.551645 
-0.471852 0.218742 -0.368098 
0.323946 0.929707 -0.551537 
-0.292556 0.154031 0.387829 
0.303495 0.105792 0.108660 
-0.471584 0.539070 0.314775 
0.471938 1.197958 -0.075278 
0.463320 1.788952 -0.102469 
-0.472163 0.670312 -0.045714 
0.378584 1.911785 -0.155575 
-0.471696 0.936206 0.272674 
-0.458688 1.856039 -0.126992 
-0.060833 0.697510 0.441477 
0.471907 1.198443 -0.343712 
0.471786 1.332706 -0.182865 
0.139307 0.876296 -0.551647 
0.191472 1.010589 -0.551596 
-0.471617 1.041656 0.114411 
-0.304731 0.105722 -0.054708 
0.472130 0.551529 -0.238672 
-0.368777 1.566952 0.495362 
-0.389487 0.272285 0.441487 
-0.230722 0.851157 -0.551627 
-0.103365 1.412825 -0.551749 
-0.355125 1.486787 0.549237 
-0.337465 1.416989 0.441663 
-0.442915 1.902450 0.215761 
0.228506 0.136945 -0.548052 
-0.456303 0.176581 0.371054 
-0.467046 0.143971 -0.212997 
-0.325952 1.901071 0.375573 
0.468139 0.306469 -0.529688 
0.017079 1.883580 0.425785 
-0.258596 0.596374 0.441819 
-0.305944 0.105594 -0.189970 
-0.330719 0.601550 0.441975 
-0.065316 0.106005 0.102406 
-0.348183 1.292987 0.497805 
0.288325 1.598072 0.441527 
0.342490 0.040335 -0.468713 
-0.306964 0.105620 0.161124 
0.464719 1.707011 0.194250 
0.430482 0.306440 -0.550995 
-0.327808 1.462049 0.545445 
0.250082 1.911840 -0.102400 
0.117030 0.336632 -0.551468 
0.414911 0.017888 -0.473138 
0.234489 0.560742 0.441744 
-0.235013 1.412946 -0.551692 
-0.437522 0.355206 0.439089 
-0.453848 1.889566 0.058091 
-0.471815 0.247729 0.082327 
0.198456 1.911835 -0.102381 
-0.390368 1.359759 -0.551545 
-0.104531 1.493131 -0.551769 
0.429683 1.910902 0.030669 
-0.107112 1.653943 -0.550575 
-0.177484 0.393693 -0.551571 
0.471953 0.253179 0.029022 
0.454155 0.145904 -0.541860 
-0.326905 1.877893 0.426346 
-0.467113 0.728233 0.410397 
0.472089 0.741128 0.003945 
0.258186 0.107037 -0.520628 
-0.471627 0.221529 0.108758 
0.468934 1.600467 0.221287 
-0.243251 1.864930 -0.543765 
0.363933 0.004636 -0.489075 
0.437414 1.891163 0.356662 
0.461857 1.818721 -0.343586 
0.109587 1.359428 -0.551731 
0.011168 0.127403 -0.546047 
0.320856 0.102862 0.314191 
0.175397 0.105778 -0.434848 
-0.459626 0.352874 0.370595 
0.256638 1.783246 0.437884 
0.466203 1.655006 -0.156188 
0.464104 0.361202 -0.539836 
0.183519 1.385679 0.441195 
0.433332 1.331628 0.439011 
0.023672 1.386420 0.441145 
-0.471789 1.280094 0.193786 
-0.467390 0.431525 0.386798 
-0.206584 0.105783 -0.431878 
-0.367188 0.701054 0.454882 
0.441670 0.895884 0.432054 
0.020061 1.911992 -0.470996 
-0.274376 1.877249 0.426423 
-0.415281 1.039301 -0.551432 
-0.472034 0.458886 0.163085 
0.471946 0.279824 -0.376024 
0.471930 0.956173 -0.343354 
0.279651 0.197706 -0.550843 
0.224887 0.105888 -0.028970 
0.472065 0.525078 -0.023961 
-0.324042 1.292436 0.523244 
-0.441701 1.881862 0.361230 
-0.383129 0.105112 -0.396151 
-0.451009 0.163016 0.372123 
0.165008 1.010630 -0.551617 
0.156535 1.412335 0.441232 
-0.230562 0.421366 -0.551570 
-0.316791 0.122769 -0.545017 
-0.199230 0.105914 -0.002235 
0.471926 1.090229 -0.021664 
0.471569 1.305111 0.113211 
0.462226 1.438701 0.354909 
-0.411559 0.790979 0.434266 
0.425229 0.902623 -0.551348 
-0.371602 0.424379 0.457733 
0.444492 0.155782 0.378589 
-0.214223 1.707456 -0.549977 
-0.141173 1.911743 0.108606 
0.472175 0.334665 -0.187261 
-0.337163 1.144614 0.441900 
0.152643 1.676398 0.440715 
0.472182 0.443272 -0.159125 
0.390331 0.163517 0.434978 
-0.453553 0.622808 0.434122 
-0.211799 1.361602 0.441252 
-0.472132 0.775628 -0.149915 
-0.054484 1.095091 0.441223 
0.330841 0.279528 -0.551091 
-0.001528 1.147364 0.441144 
-0.425144 0.094874 -0.436393 
-0.470840 0.539016 0.331127 
0.262239 1.544953 0.441472 
0.127634 0.695120 0.441644 
-0.466790 0.622075 0.417624 
0.139631 0.822492 -0.551655 
-0.414367 0.407366 0.441864 
0.122369 1.896266 0.419964 
-0.187163 1.044531 0.441427 
0.470111 1.576458 -0.426748 
-0.381045 0.105636 0.109425 
0.369940 0.039951 -0.501717 
0.183106 1.735953 -0.549527 
-0.459940 1.842254 -0.422728 
0.372144 1.197702 0.441400 
-0.424151 0.083137 0.293601 
-0.271050 1.911940 -0.418879 
-0.178441 0.105773 -0.405740 
0.394504 0.367927 0.441559 
0.454985 1.882618 0.110929 
-0.333520 1.414841 0.501541 
-0.019043 0.796297 -0.551628 
-0.471951 1.094185 -0.096416 
-0.335941 1.511219 0.503582 
-0.035754 0.591858 0.441496 
-0.345533 1.124038 0.492383 
-0.412373 0.892543 0.434098 
0.424400 0.983420 -0.551321 
0.123913 0.106013 0.256164 
0.373721 0.000387 -0.473690 
0.376693 0.902708 -0.551521 
