0.7799614507 0.0397750724 -0.0140997391
0.7728846727 -0.0588722571 -0.0135433255
0.7266137152 0.1278133202 -0.0123806812
0.8682524438 0.1992943874 0.1681648831
0.8248818006 -0.0500595922 -0.0152232320
0.9470258338 0.0531717755 -0.0339406215
0.8650681435 0.1097575300 -0.0190100374
0.8728672165 0.2314906092 -0.0366999215
0.8121600114 0.1320015874 -0.0150329898
0.8087416490 -0.0256204652 -0.0146507564
0.8118540125 -0.0630085560 -0.0147091990
0.7877816094 -0.0672525592 -0.0324969389
0.9187546937 -0.0033353456 0.0684855830
0.9014225193 -0.0092039029 -0.0372267098
0.9054006503 -0.0332612534 -0.0373129095
0.9280224201 -0.0166957516 0.0462520301
0.9312259281 0.2054633278 -0.0171064188
0.8159391248 0.2066921491 -0.0347568726
0.9417260002 -0.0023481579 -0.0378635849
0.9086338477 0.1647326075 0.0703793984
0.8055789910 0.1856572475 -0.0148361919
0.7847176315 0.1417011006 -0.0141401358
0.9060145389 0.2096598788 0.0829043047
0.9005019903 -0.0508665039 -0.0173935438
0.8773910314 -0.0576216049 0.1682791016
0.7932546672 0.0888684044 -0.0143705531
0.8601578584 0.2423249527 -0.0165644382
0.8957457842 0.0294426203 0.1238372364
0.7282299262 0.0943452507 -0.0124299646
0.9225782634 0.0119714072 0.0575491245
0.9443309232 -0.0422996236 0.0080916023
0.9243380790 -0.0720774386 -0.0179843695
0.7646343819 0.1604189650 -0.0326199184
0.9333608490 0.1579082875 0.0187112643
0.9441378851 0.1412762981 -0.0058206497
0.9498947023 0.0720078437 -0.0238289313
0.8943858115 0.1334417704 0.1089946069
0.8564194720 0.0084424297 -0.0186306394
0.9503525327 0.0652203127 -0.0174341842
0.8195615946 -0.0808264999 -0.0165782799
0.8313355080 -0.0153475610 -0.0349986105
0.8793504496 0.2181700588 0.1404918342
0.7272306128 0.0796095888 -0.0136205658
0.8819475035 0.0852690660 -0.0194913861
0.7742650011 0.2398647442 -0.0236666298
0.8823147184 0.1027869014 -0.0194332841
0.9011286473 0.0427893979 0.1091322804
0.8848459050 0.0390108199 -0.0368041311
0.8989740410 0.0463434720 -0.0199321686
0.9342896267 0.2029671918 -0.0036083888
0.7717573319 0.0810090467 -0.0141406249
0.8784943189 -0.0624775993 0.1671672931
0.9095727605 0.2051825411 0.0742989258
0.8932557368 0.1057083763 -0.0195035329
0.7476453968 -0.0427650721 -0.0308670472
0.8770809173 0.1429880854 0.1528956331
0.9031514339 -0.0565710326 0.1025335426
0.9300516356 -0.0505702955 0.0343659146
0.9379157517 0.1094940113 -0.0018428210
0.9237119435 -0.0702144309 -0.0375976818
0.7872955348 0.0605272739 -0.0333725957
0.8986466307 -0.0195005554 -0.0371319101
0.8971376398 -0.0084590958 0.1139568361
0.9107105494 0.1923910623 0.0628211629
0.8757338501 0.0352022368 0.1746112683
0.8761041611 0.0570174768 -0.0365709466
0.7709712167 0.0342208182 -0.0138302665
0.7909641782 0.1519151007 -0.0336865035
0.9419254335 0.1431734631 -0.0007718998
0.7271206174 0.0022439958 -0.0193648495
0.8409193206 0.1415386906 -0.0356202491
0.8784579351 0.0265613527 -0.0365989610
0.8942309509 0.2382979626 -0.0175341925
0.8891231395 0.2050235426 0.1259199955
0.7727110445 0.1135145193 -0.0328643804
0.7506721682 0.0310913349 -0.0317866202
0.9520092348 0.0099961995 -0.0223908550
0.8853768504 0.0582166738 -0.0368458021
0.8838419550 0.0385446862 -0.0195344217
0.9470034828 -0.0642331342 0.0033016909
0.8819685507 0.0500355714 -0.0195679571
0.8315502817 -0.0593330172 -0.0153177036
0.9113237638 0.2404617209 0.0643524357
0.9287636013 0.0428622891 0.0394627074
0.8441008753 0.0070442613 -0.0355239432
0.8856622464 -0.0281061628 0.1452326567
0.8716211699 0.1240788854 0.1776442597
0.9032666197 0.1520629930 0.0946372730
0.7272224388 0.0752298552 -0.0175418367
0.8594801967 0.2093504848 -0.0362835863
0.9343331466 -0.0668307750 0.0178986682
0.8746104063 0.1607058892 -0.0191608543
0.9472955847 0.1330827897 -0.0284543520
0.9248236145 0.0166313408 0.0515310598
0.9175468883 0.1402266655 -0.0378979201
0.8673521448 0.1271296782 0.1860125390
0.8975071912 -0.0229977282 0.1237604166
0.8850814528 0.1559037980 0.1309464876
0.8894577998 0.0897954059 0.1252957052
0.9361778715 0.1774341238 -0.0003394451
0.8694365109 -0.0347664647 0.1805606469
0.9046699625 -0.0677128025 0.1084433847
0.9150597632 0.0765224396 0.0615111867
0.8425795920 0.1215337096 -0.0182046070
0.8754154186 0.0408889374 -0.0365291156
0.7555902666 0.1634292335 -0.0322452592
0.8835266737 0.0473412702 0.1442943606
0.9399056454 -0.0639181945 0.0204981891
0.8882081588 0.0405489268 0.1420568806
0.8908518660 0.1131903806 0.1292213210
0.8326632255 0.1861852288 -0.0178198302
0.7739096372 0.1719899808 -0.0330258659
0.9164034354 0.0782659672 0.0579792966
0.8986949165 -0.0367373524 0.1123383235
0.8844890510 -0.0323089203 -0.0191746363
0.9463209625 -0.0557279055 0.0044062172
0.8786809443 0.2418628543 0.1457372060
0.7902823450 -0.0310271734 -0.0140953116
0.9410621652 0.1264736278 0.0025571996
0.8610912168 0.2434181943 0.1869861922
0.8749312917 0.0452502025 -0.0188026996
0.8583367882 0.2339304958 0.1931600535
0.9186883751 0.2124038145 0.0506815742
0.8666076035 0.0450463195 0.1810329007
0.9315431658 0.0117036471 0.0351082220
0.9449088385 0.0537178116 -0.0008415797
0.8976928244 -0.0711343780 0.1099962823
0.9138030326 0.1199183984 -0.0377636349
0.9171749755 0.0829787066 -0.0187424809
0.8336897202 0.2184552305 -0.0354653115
0.8887064122 0.0766085022 -0.0194012492
0.8964273218 0.0950772647 0.1166267752
0.8252277407 0.0394121156 -0.0176764233
0.8686306132 0.1088069521 0.1705187327
0.8749514676 0.1300535213 0.1598560161
0.8103186665 0.0828028262 -0.0148593713
0.8978841915 0.0798170837 0.1045588744
0.9300521500 0.1333979764 0.0288599423
0.8846869859 0.1617846674 0.1408246042
0.9144454679 -0.0518765293 0.0834093236
0.8847923617 0.2423993492 0.1296238388
0.9417685678 0.0166410790 -0.0377364058
0.8842136386 -0.0566934687 -0.0366596616
0.7630277587 0.0749234050 -0.0323822630
0.9336492225 0.1873619152 0.0054781014
0.9065118974 0.1338508780 -0.0201391408
0.7557699588 0.0578444439 -0.0136309477
0.9368001026 0.1896048300 0.0077558015
0.8878681013 -0.0480854228 0.1412120480
0.9209892679 0.0338330308 0.0597346763
0.8655382203 0.1326273518 0.1764596646
0.7485003030 0.0847520263 -0.0317669120
0.9279705510 0.0953576698 0.0274743535
0.9523770970 -0.0191523541 -0.0281923310
0.9488019518 0.0396607464 -0.0322670017
0.8909172063 0.0280976037 0.1267900357
0.8095746248 0.2159424800 -0.0150185533
0.8655849287 0.1898641978 0.1715145500
0.8670230492 0.1380355126 0.1722244997
0.8989198633 0.1459448542 0.1061135518
0.8833912714 0.2423695568 -0.0341017203
0.8428083235 0.0510413578 -0.0180725486
0.8386910498 -0.0276490291 -0.0177687494
0.8660156411 -0.0236384639 0.1880765646
0.9402590325 0.1075577197 0.0059658873
0.8951370454 0.0024009333 -0.0193952825
0.8082323790 0.0538024686 -0.0147510182
0.8894480946 0.1684580586 0.1186955753
0.7375170380 -0.0160748355 -0.0261051557
0.9002303174 -0.0778713244 0.1051395637
0.7914934394 0.2017028297 -0.0337813471
0.8434784320 0.0509560907 -0.0355738556
0.9198880871 0.0599217201 0.0603407294
0.9247483062 -0.0688248833 0.0417572404
0.8900849636 0.0331985945 -0.0369511557
0.8356647185 0.2205576255 -0.0355422656
0.8766774875 -0.0751999906 0.1771438928
0.8190490363 0.2119181079 -0.0155419535
0.7896467565 0.1276715557 -0.0142850761
0.9433570545 -0.0588199930 -0.0045540250
0.8762496117 0.1457260093 -0.0194079996
0.9019135616 -0.0164962147 0.1120865782
0.8855299481 -0.0712867990 0.1567223236
0.9017557587 0.0577279470 0.1063160502
0.8859308325 -0.0033649407 0.1516824476
0.8060646218 0.2279296483 -0.0343560261
0.7381006197 0.1148873090 -0.0289661049
0.8612142292 0.1711253927 -0.0362797286
0.8862223631 -0.0332567568 0.1534717203
0.9285025014 0.2477570808 0.0101412541
0.7556777148 0.2304193934 -0.0134131719
0.8797581545 0.0393727322 -0.0366547871
0.9270582284 0.2010501473 0.0209887591
0.8753892788 -0.0316783914 0.1811038225
0.8742917729 0.0772847189 0.1664647869
0.8889257539 -0.0735055295 0.1328418757
0.9230834163 -0.0552793630 0.0522332375
0.8667820256 0.0643637266 0.1897565586
0.8236754784 0.1455112499 -0.0349627594
0.7272508330 0.2325335543 -0.0125725364
0.9286064194 0.0385211600 -0.0380859425
0.8321313519 -0.0545492752 -0.0349605071
0.7553968444 -0.0737955073 -0.0263522293
0.9084660842 0.1950083954 0.0779525193
0.8984474153 0.1631039535 0.0961597470
0.7852027508 0.1883475054 -0.0142335272
0.8891218720 0.1218094192 0.1234614167
0.8124339842 0.0371496453 -0.0343472515
0.7627049987 0.1302831156 -0.0324780061
0.7309406152 0.1515936822 -0.0125424014
0.9533618511 -0.0307340575 -0.0221639489
0.9172449791 0.0591774938 -0.0377858714
0.8564792986 -0.0444406668 -0.0171328171
0.7377822762 0.2342694648 -0.0128819236
0.9417401425 0.2276310184 -0.0333871365
0.8996062716 -0.0467299235 0.1204330307
0.8872702576 0.1411691743 0.1359643708
0.9155327008 -0.0029285423 -0.0376489950
0.7214043872 0.1763587413 -0.0198907609
0.9236291548 0.2234114463 -0.0381744197
0.9454364861 0.2131556272 -0.0190901746
0.9380801885 -0.0474097778 -0.0184259158
0.8921090368 0.2031606502 0.1089001972
0.8822277768 0.1872331603 0.1356548916
0.9247875434 -0.0522537023 0.0572985167
0.9321814236 0.0599166123 -0.0184618564
0.8894497964 -0.0248840752 -0.0196690936
0.7320196371 0.2327343948 -0.0127092315
0.9445744517 0.2346180104 -0.0226423018
0.8747013196 0.1742755857 0.1654594965
0.9455980917 0.2021022457 -0.0243428874
0.9196359772 0.0070444355 0.0557683935
0.7531574596 -0.0660992704 -0.0129429343
0.9109330463 0.1185809625 0.0780853419
0.8210694548 -0.0271812690 -0.0345801907
0.7400499318 0.0137740433 -0.0126287151
0.8352978180 -0.0014662511 -0.0351750597
0.8697427507 0.2010233123 0.1759434230
0.7850679096 0.1432089794 -0.0334314264
0.8914710884 0.1672768903 0.1136074975
0.8848458643 0.2407363410 -0.0355342138
0.8743978373 0.1460213689 0.1686351787
0.8808951580 0.0499291190 0.1509414498
0.9143728415 0.0385191629 0.0760758555
0.9118827446 0.2334726732 0.0656604936
0.9425153106 0.0550562491 -0.0116170908
0.9390574677 -0.0768781844 -0.0280859131
0.8680241002 0.0611948803 -0.0187251699
0.8691823334 0.0261891027 0.1881532566
0.8884108561 0.2023762145 0.1184780971
0.8970800332 0.0007225977 0.1133293240
0.9282848777 0.1414708844 0.0325588827
0.7337601785 -0.0366404227 -0.0123891299
0.8975766829 0.0745508000 0.1154370725
0.9473017637 0.1469671303 -0.0262513651
0.8700578632 -0.0706825322 -0.0348788750
0.8873967375 0.2445584867 -0.0326117495
0.8750721529 0.2031176342 0.1529748433
0.8010092196 -0.0159513973 -0.0338105928
0.8652533023 0.1132013213 0.1787909137
0.8543456030 0.1356368559 -0.0360390313
0.9284174930 0.1188653503 -0.0381801260
0.9102046505 0.2188864203 0.0618846452
0.8070062778 0.1622925317 -0.0148498424
0.9025801708 0.0558943110 0.1043941265
0.9333509875 -0.0065285900 0.0321316666
0.8769029440 0.2017699294 0.1574899304
0.7638097675 0.2183957614 -0.0326580528
0.8736854973 0.0677292739 0.1771128970
0.8408484956 0.0845011199 -0.0355370708
0.8698666082 0.1066122944 0.1831745116
0.8804881634 0.2283916070 0.1458987425
0.8816761028 0.0994355378 0.1538874575
0.9410260866 -0.0073300291 -0.0020752077
0.7262389132 0.0899912955 -0.0167428015
0.9030760374 -0.0420661659 -0.0191309169
0.8972647080 0.0521262739 0.1180947904
0.8955129769 0.0591234053 -0.0371458660
0.9073430153 -0.0643854963 0.1021182103
0.9051178712 0.0523569403 -0.0374202055
0.8684365831 0.0620795852 0.1750190123
0.8619884840 -0.0377460200 -0.0360349703
0.8760573960 0.1856918916 0.1518842538
0.8979014436 0.0038540060 0.1205165155
0.8811181778 0.2213398851 0.1356039748
0.8222169551 -0.0528493888 -0.0345767674
0.9132901479 0.1696602578 -0.0378089740
0.9199769847 0.2347232096 0.0453305336
0.9199261566 -0.0032630902 0.0558937892
0.8993307121 0.0832151677 0.1103031009
0.8481119899 0.2219399098 -0.0359684068
0.9513332652 0.0221295726 -0.0148207001
0.8680596041 0.1479593675 0.1838542285
0.9022094811 -0.0039244106 0.1102980758
0.8588969074 0.1654068655 -0.0187692039
0.9335041683 0.0585684127 -0.0382375883
0.9277398411 -0.0416777593 0.0490272097
0.7637410503 0.2223852599 -0.0326469685
0.7974177658 0.1777296625 -0.0339888157
0.8900226092 0.2186597571 0.1129360943
0.8436675880 -0.0043898190 -0.0180401403
0.7395650194 0.1847309428 -0.0307635446
0.9247807608 -0.0334920066 0.0462018825
0.9385884718 0.0838081736 -0.0044941018
0.9286879392 0.1091308039 -0.0381784155
0.9309755880 0.0176452455 0.0263694791
0.7320378431 0.1756010150 -0.0266380124
0.9287673845 -0.0572132093 -0.0181518795
0.9151829001 0.2282095071 -0.0379376399
0.9249957596 0.1244347171 0.0325445039
0.9387232469 0.1450154138 -0.0129245006
0.7911412231 0.0759494567 -0.0335531676
0.9121808582 0.0838769610 0.0681692228
0.8808482783 -0.0267533372 0.1667326783
0.8440902667 0.2324789781 -0.0355977589
0.8676635796 0.1706844763 0.1834148403
0.8953223764 -0.0366978881 0.1304364606
0.9260423027 0.1093045997 0.0311647832
0.9326788815 0.2349493727 0.0140312233
0.7547001774 0.1390482077 -0.0321565590
0.8926864587 -0.0253024180 0.1361669545
0.8720844882 0.0664694822 -0.0364672828
0.9166336248 0.0952206079 0.0656218152
0.8165643541 -0.0474056347 -0.0343652361
0.9229239905 0.0650328384 0.0522904964
0.9070957397 0.0731233101 0.0915487980
0.8701797270 0.1968175023 0.1751762618
0.8910678949 -0.0780888619 -0.0232757054
0.7511549024 0.0988167047 -0.0135485510
0.9306083894 0.1492778822 0.0163702835
0.8472219675 0.0670998415 -0.0184462034
0.8688275277 0.1213026608 -0.0187299474
0.7252700108 0.0939789396 -0.0126160277
0.8996434171 0.1243250864 -0.0373528815
0.7471603355 -0.0509533142 -0.0127793210
0.7430060794 0.1522153065 -0.0129076570
0.8826827377 0.1159210767 -0.0195417332
0.8955528348 -0.0110798245 0.1182454727
0.7809833468 0.0125624018 -0.0330439511
0.9130817377 -0.0524283050 0.0772600528
0.9245677113 -0.0462433651 0.0573657389
0.8413910746 0.0957114302 -0.0355704671
0.8809247861 0.2194708525 -0.0369253409
0.9185427335 0.2094225115 0.0512935417
0.7270476003 0.2072059775 -0.0241852472
0.8699482330 0.1631823613 0.1682191599
0.8255323690 0.1518287178 -0.0177828434
0.8751581380 0.2390792273 0.1417868273
0.8713949168 0.1020249237 0.1800720739
0.8652889885 0.0321700585 0.1853358688
0.9053300365 -0.0033534868 0.0926862763
0.8905316862 0.1778003665 0.1151247857
0.8681080216 0.0295867009 -0.0187738858
0.8920873134 0.1056272701 0.1267215312
0.9269826649 0.1168667656 0.0378036295
0.7373595516 0.1726022941 -0.0295850889
0.7546664626 0.1176773226 -0.0136696146
0.9061768786 -0.0410366487 0.0936757783
0.8910142034 0.0799564614 0.1315835275
0.8778547442 0.1777673111 0.1478596601
0.8130885352 0.0926128294 -0.0150492049
0.8510193100 0.2388453593 -0.0327674738
0.7831681574 -0.0777091024 -0.0245578731
0.9345610584 0.2131237306 0.0113140134
0.8262714145 0.1311617877 -0.0177496608
0.8792963647 0.0805553376 -0.0193648635
0.9239317335 0.0292060112 -0.0379388136
0.9107827608 0.0057567638 0.0878627865
0.8880872037 0.1833383227 0.1303593198
0.8971376313 0.1624614516 -0.0198528039
0.8765410371 0.0639388721 -0.0365945938
0.8859144640 0.1734424738 0.1273062433
0.8657183899 0.2100026038 -0.0364675159
0.8485840671 0.0991007957 -0.0181745907
0.8037959168 0.0747489792 -0.0146510778
0.9008068205 0.1921759562 -0.0374732627
0.8960749267 0.0980792649 0.1172657590
0.9280922080 0.0053928078 0.0346527908
0.9072454985 0.0499756310 -0.0374796576
0.8755434030 0.1814328225 0.1536207288
0.8946731074 0.1800475530 0.1139707308
0.7764573536 0.0788260563 -0.0142697847
0.8801145382 0.0103213886 0.1565305745
0.9188568068 0.1214367422 0.0578229236
0.9159284503 0.1308731694 0.0644122063
0.9433476882 -0.0077784465 -0.0085690043
0.9146326678 0.1246298131 0.0682217878
0.7978128513 0.1581439756 -0.0339721409
0.9462004745 0.1596239238 -0.0291765906
0.9448080253 0.0091505888 -0.0367585982
0.7698645332 -0.0799805256 -0.0220952278
0.8887094420 0.2435416262 0.1065399101
0.8768804579 0.0523732501 0.1701968643
0.7745439526 0.0165898896 -0.0327831411
0.8909268123 0.0170156918 -0.0192962829
0.7899634032 0.1300920771 -0.0142925048
0.8748948955 0.0712968178 0.1736965938
0.8876304826 0.2018847794 -0.0371000616
0.9062261313 0.0205684722 0.0981343633
0.8001263475 0.1900153336 -0.0146810312
0.9427496087 0.0042249185 0.0081697577
0.8599060790 0.1864110039 -0.0362626463
0.9087743544 0.1472841258 0.0714764782
0.7527260896 0.0812911920 -0.0135795610
0.7281809876 -0.0253103474 -0.0204160636
0.8699027315 -0.0776382108 0.1810316816
0.8703323012 -0.0631730549 0.1907028479
0.9202518343 0.0865279503 0.0476238706
0.9054235052 0.2293996992 0.0730160737
0.8361257778 0.0720938155 -0.0177242423
0.9050215187 0.1272086982 0.0826344550
0.8263901335 0.1679891323 -0.0351043478
0.9138612855 0.0711395944 0.0649794500
0.9468530502 0.0746605983 -0.0070381565
0.8552285910 0.0970863215 -0.0360207030
0.8871447581 -0.0504366081 0.1525500088
0.8200930410 0.1554672759 -0.0175238456
0.8828510264 0.0208451795 -0.0196666955
0.7223811680 0.2295426400 -0.0203224751
0.7845721380 0.1353884887 -0.0333961255
0.9112975243 0.0118406356 -0.0375442040
0.9084425506 0.0925623873 0.0768835563
0.9312331369 -0.0005372156 -0.0184469303
0.9014393217 0.2135918681 -0.0181364641
0.9306987053 -0.0284735245 0.0405205186
0.8794840760 0.1948390914 0.1514201553
0.8031884682 0.0974414572 -0.0146577875
0.9068719221 0.1164017760 -0.0375562811
0.7553563047 0.1988830940 -0.0322843943
0.9120304547 0.0083025157 0.0845064284
0.7682835251 0.0848399570 -0.0140433052
0.7612036966 -0.0298363041 -0.0321416109
0.9081779064 -0.0060640513 0.0857707832
0.8940226752 0.0965811128 0.1225792710
0.8571753008 -0.0475871499 -0.0358816281
0.8660218819 -0.0379344493 0.1892384661
0.7754018123 0.1223563494 -0.0141317137
0.9300920811 0.0460116332 0.0358936360
0.7367396138 0.0201405815 -0.0263750332
0.9057771896 0.2002098631 0.0842924822
0.7261532823 0.1206772887 -0.0223274275
0.9217196868 -0.0147033224 0.0619228787
0.8707853035 0.0222643136 0.1723704456
0.9391348091 0.0771430022 0.0111056919
0.9447595398 0.1852843418 -0.0310689040
0.7347277358 0.2253659577 -0.0127773137
0.9333104677 0.0888490724 0.0145834246
0.8036846568 0.1656981003 -0.0147514753
0.8770974674 0.1294190098 0.1540549779
0.9096992135 0.1091285371 -0.0376307550
0.9024172158 -0.0484854969 0.1037699585
0.7460631719 0.0021206891 -0.0128013649
0.9224069873 0.0059977883 0.0584706644
0.9388367863 0.1050363532 0.0095860782
0.8832260355 0.2056451695 0.1408466887
0.9272616853 0.0384211905 0.0435945474
0.8621772176 0.0386528128 -0.0361390678
0.8788572423 0.0365258398 0.1664583519
0.8807787089 0.0968982927 0.1564242460
0.9020341259 0.1999362535 0.0937505129
0.9154469037 -0.0073103973 0.0771983406
0.9284830384 0.0727022362 0.0280668386
0.8713381854 -0.0623743069 -0.0362763912
0.9029513583 0.0218198780 -0.0198037573
0.9459523636 -0.0765157041 -0.0006176730
0.9259492539 0.1888227159 0.0247917494
0.7598281574 -0.0361529573 -0.0131762849
0.7977585431 0.0934160052 -0.0144935663
0.7237567271 0.2149483787 -0.0223984099
0.8462508443 -0.0357693402 -0.0355390246
0.8688057130 0.0796886747 -0.0186900912
0.7943708457 -0.0309478182 -0.0142173768
0.8818800917 0.1562448691 0.1485228254
0.8005268275 0.1590967509 -0.0146462803
0.7592320333 -0.0612505596 -0.0131308115
0.7709525264 0.0515830698 -0.0326829245
0.8442840407 0.0976019116 -0.0356795054
0.8715827700 0.0663371294 0.1823149413
0.7291912642 0.0870282708 -0.0124605291
0.7447672563 -0.0105218561 -0.0127515147
0.8743876002 -0.0145590084 -0.0187402052
0.9287024177 0.0651248774 0.0377763347
0.9139106367 -0.0409381314 -0.0375518295
0.9214000363 -0.0769246821 -0.0317816210
0.9491797589 0.0653577941 -0.0294774134
0.8940155932 -0.0784232823 -0.0210660379
0.8480492423 -0.0044503785 -0.0186426499
0.8825179094 0.0050462421 0.1505847565
0.7681109669 0.0708592438 -0.0325916699
0.9324200894 0.0534933478 -0.0184631253
0.9442544464 -0.0142919452 0.0060255646
0.9458983821 -0.0725653089 -0.0103203863
0.8925063058 0.2351671209 -0.0174861891
0.8742115959 0.0429776571 -0.0190236742
0.9240722631 0.1704444471 0.0310466992
0.8775903707 0.0872891179 -0.0366576548
0.8095161529 0.1908111040 -0.0344851733
0.9022619409 0.0675662531 0.0944929318
0.9277293267 -0.0257394003 0.0381558101
0.8944565454 -0.0469974897 -0.0369731369
0.7445737426 0.0676319503 -0.0311083670
0.8927610196 -0.0018991067 0.1340179096
0.9173695646 0.0776360506 0.0555980853
0.9378600582 -0.0341390265 0.0232723611
0.8783266301 0.1863436179 0.1458889082
0.7838061438 0.1038575466 -0.0141678782
0.9526379268 -0.0056892662 -0.0192936943
0.9379459565 0.2158374393 0.0029782240
0.7710401677 0.1219561702 -0.0140971758
0.8487519949 0.0020474760 -0.0185313367
0.9516705649 0.0032156461 -0.0130789041
0.9435100722 0.0196995817 -0.0126842169
0.9078997703 0.0337828146 0.0928022764
0.8587458133 0.2245412283 0.1858007858
0.9341022003 -0.0108099790 -0.0381682416
0.9187050084 0.0215942213 0.0568941096
0.9077669593 0.0752695207 0.0896771064
0.8722499734 0.1801801796 -0.0189804866
0.9179764749 -0.0377441830 0.0733362116
0.9266921199 0.2000219848 0.0317409450
0.8972294597 0.1342351651 -0.0200585539
0.9330104578 -0.0582029353 -0.0380780341
0.7990154177 -0.0616878720 -0.0143265489
0.9286084497 0.1212148511 -0.0381879735
0.8801801731 0.1406186100 0.1542486999
0.9284262880 0.1031186445 -0.0381654528
0.8170281218 0.2036030338 -0.0347945632
0.9245651227 0.2397830865 0.0324265216
0.9167895785 0.0666380420 -0.0190154521
0.8867787991 0.0524043897 -0.0194811292
0.8375042020 -0.0443386000 -0.0351878143
0.9065050110 0.0966929122 0.0814358460
0.7447330172 -0.0441324628 -0.0127127868
0.8754587693 0.0382909373 0.1668254674
0.9041775552 -0.0230865417 0.1069360274
0.8345778147 0.1566850773 -0.0179661080
0.9236174043 0.1811211353 0.0409150749
0.8767150229 0.1521276544 0.1530658697
0.8944366269 0.0392831711 -0.0370870430
0.7305165559 -0.0044420749 -0.0123362101
0.7544837316 0.2248810525 -0.0133703122
0.8581012338 -0.0449296089 -0.0359132441
0.8412862687 -0.0556349735 -0.0156287023
0.9177460294 0.0088909768 0.0700145723
0.9166423678 0.1247106406 0.0535257812
0.8073473666 0.0436585733 -0.0147089347
0.8874305699 -0.0783043987 0.1382356061
0.8612077170 0.1785467073 0.1922726505
0.8475862030 0.1297767795 -0.0182880232
0.8818553632 0.1812872881 0.1371338568
0.9009686545 0.1866268837 0.0878919609
0.7913409054 -0.0465041970 -0.0141127071
0.9080619305 0.0819706222 0.0787326009
0.7872045420 0.1870439237 -0.0335910037
0.9447936461 0.0108954085 0.0027585159
0.9297895030 0.1323114290 -0.0382352827
0.8620409999 0.1080678085 0.1871744185
0.8757608619 -0.0290745991 -0.0189583296
0.8873247775 -0.0393296554 0.1511361434
0.9335848370 0.2208308399 -0.0185960995
0.9392923082 0.0192172926 0.0153945580
0.9001044402 0.0427965396 0.1117076147
0.7441969897 0.1501551428 -0.0317178068
0.7948912498 0.1934948830 -0.0339084322
0.9248917787 0.1219992406 0.0330069097
0.8663863043 0.0562749645 0.1906844917
0.8854590425 0.1504464469 -0.0369655937
0.8989204119 0.2064819476 -0.0197711033
0.8763115232 0.2308835224 0.1469666265
0.9102258384 -0.0586343658 0.0849501768
0.9063383414 0.2054105827 0.0824442942
0.9295418005 0.0374433345 0.0283376674
0.8174289754 0.1216433333 -0.0163305331
0.7585003883 -0.0497582621 -0.0131216864
0.9517938170 -0.0290131758 -0.0310831609
0.9352180350 0.0338211892 0.0143606327
0.9319310841 0.0366877685 0.0223954736
0.9490467725 0.0547453620 -0.0107203902
0.8763342102 0.1931674515 0.1504972765
0.8680434991 0.0899941740 -0.0363805454
0.9485197045 0.0023528944 -0.0341438025
0.8742596175 0.1936359324 0.1559881106
0.7679929799 -0.0578419021 -0.0133974575
0.8988170192 0.1776176407 0.0940263309
0.9230162586 0.1826325050 0.0326882704
0.9238107899 0.0034464325 0.0455880904
0.9109572815 -0.0776049789 0.0792542784
0.9398047994 0.0931427614 0.0082020853
0.9308529933 0.1369308153 0.0167879527
0.9428497696 0.0264884633 0.0061768825
0.9258017613 0.0228969259 0.0485524543
0.7390224291 0.2253195291 -0.0289295031
0.7263357854 0.0173997522 -0.0195843471
0.8747859279 0.0145997122 -0.0188252789
0.8065619626 -0.0190081775 -0.0145908464
0.9395270203 -0.0158721493 0.0176650608
0.9059669020 0.0157934737 0.0895084518
0.9134363791 0.0233251138 0.0700437236
0.8582984770 0.0702237399 -0.0360736151
0.8827971768 -0.0771071346 0.1594285419
0.9009411151 0.0777862784 0.0969590281
0.9510224326 -0.0197312180 -0.0095301738
0.8545933183 0.1998042965 -0.0361290453
0.7483445567 0.2407358259 -0.0204390714
0.9097351355 0.2096710945 0.0638506658
0.9315719654 0.1090994553 0.0270929244
0.8773023589 0.1513950892 0.1607477211
0.9191022599 0.0690517968 0.0615656296
0.7252633841 0.0573851192 -0.0195513404
0.7801207406 -0.0081480620 -0.0138158391
0.9452033257 0.2149102303 -0.0238335912
0.9327678046 0.0375632962 0.0202216382
0.9037358775 0.1746297627 -0.0201358438
0.8656633368 0.0135799519 -0.0362036281
0.7857212684 -0.0082520370 -0.0332052569
0.9222741543 0.0908738172 0.0517866264
0.9130669909 -0.0453665944 -0.0179323348
0.9468363759 0.1258251946 -0.0110316588
0.8401883899 -0.0276464961 -0.0353204681
0.7253491535 0.1401719651 -0.0223465463
0.9099720692 0.0222401498 0.0885330174
0.9376796275 0.1150926943 -0.0018489560
0.7980437275 0.0031005374 -0.0143625395
0.8884974150 0.2173453756 0.1264706960
0.8809996065 0.0942122406 -0.0196551061
0.9225881929 0.0861405549 0.0417935206
0.9170933453 0.1667751120 0.0584783252
0.8195585685 0.1131940786 -0.0170185538
0.8727941009 -0.0259487936 0.1854708022
0.7317224889 0.2198871121 -0.0126774495
0.9129348207 0.2342279755 -0.0180663028
0.9047341200 0.0994216501 0.0856679576
0.8910393955 0.1267973031 0.1276114401
0.8913400427 0.2184117546 -0.0372292436
0.9162255784 0.1286559080 0.0542461200
0.8709347704 0.1045928712 0.1809210243
0.9121588375 -0.0381797757 0.0784123740
0.8960795009 0.0052835243 0.1250116811
0.9364681264 0.0013436672 0.0139035320
0.8870727503 -0.0540093584 -0.0367470098
0.8882751729 -0.0281213843 0.1384295509
0.8229631712 0.0915601143 -0.0175061341
0.9167932122 0.1869300906 0.0479764286
0.9416503341 -0.0356977455 0.0039134107
0.9320458817 0.0825169653 0.0280894575
0.9207882544 0.2227708756 0.0445424993
0.9190051732 0.1219913638 0.0478165973
0.8030935422 -0.0119013606 -0.0339012737
0.9248746130 0.1215368132 -0.0380857495
0.8840187844 0.0022892160 0.1468996690
0.9002888276 0.2099232250 0.0973266678
0.9518031705 0.0213678982 -0.0177119572
0.9149480303 0.2443459306 -0.0349025927
0.9195831937 0.1743487207 0.0516088267
0.9270872592 0.2417858280 0.0251173881
0.7661012679 -0.0478113621 -0.0133519094
0.9057457761 -0.0458824819 -0.0373055720
0.9187172808 -0.0767842037 0.0655064616
0.9108094741 0.1760314685 0.0639469768
0.7258495720 0.0372706183 -0.0161378657
0.9521087222 -0.0410738099 -0.0104300048
0.7426476805 -0.0421628065 -0.0126515655
0.7279641540 0.0325294025 -0.0123091378
0.8296488055 -0.0124431422 -0.0349381287
0.9288609519 -0.0066509466 0.0433190121
0.9331417373 0.2201625810 0.0142127393
0.8620050951 0.0818947333 0.1885942114
0.9044081087 0.2286280327 0.0756667917
0.9431177075 0.1619709820 -0.0050363659
0.7203539671 0.2030746366 -0.0175244526
0.7675428238 0.2394065326 -0.0137832745
0.9419503043 0.0056446848 -0.0134180437
0.9069463160 0.0104682112 0.0971562409
0.9009936922 -0.0395958653 0.1066740536
0.7641399618 0.1778226470 -0.0326284564
0.8998420876 0.0859157999 0.1087944550
0.9349339069 -0.0538080587 0.0320840834
0.8598475388 0.2023464022 0.1848994403
0.9352244535 0.0125298775 0.0161169945
0.9004910279 0.0123464971 0.1036011778
0.7976520771 -0.0240156775 -0.0336601856
0.9483140331 -0.0683574840 -0.0000811083
0.7422755149 0.1772793776 -0.0129310031
0.8952680094 0.1546579900 0.1145804896
0.8569681536 0.1258454975 -0.0361016663
0.9041778826 0.0902605508 -0.0374465796
0.9156134692 0.0106561346 -0.0205004184
0.9499044279 -0.0144792320 -0.0330990602
0.8708993991 0.1932760427 0.1652354681
0.9128194712 0.0971332311 0.0751180234
0.8977126063 0.1424910716 0.0997424532
0.9058343285 0.0535211956 -0.0198129244
0.9495710525 0.0819886100 -0.0237258364
0.8589475499 -0.0246370523 -0.0187617025
0.8571437855 0.0474032472 -0.0360053388
0.9078592091 -0.0779433838 -0.0206376095
0.8553650011 0.1288456630 -0.0360593944
0.9018580019 0.1436890220 0.0892189209
0.8770051441 0.1409156492 0.1623832075
0.7926426242 0.2104836932 -0.0338381884
0.8480085009 0.1673286464 -0.0358907746
0.7406816334 0.0809854752 -0.0128006947
0.9311377259 0.0746881907 0.0212253468
0.8756255033 0.0394230767 0.1745319607
0.8779671139 0.1052784646 -0.0192912891
0.8731446596 -0.0407690918 0.1856787810
0.7749190739 0.1954659847 -0.0139383704
0.7665988346 0.1404714360 -0.0135963387
0.9468535928 0.0270826923 -0.0033353510
0.9345716664 0.1419501251 -0.0159747737
0.8899391381 0.1455817819 0.1193739656
0.8955001155 0.1340206485 0.1157155496
0.8747577970 0.1143848508 0.1617826391
0.7821447482 0.1122885568 -0.0141716151
0.7926981747 0.1818589382 -0.0144454135
0.8946306705 0.2119312871 0.1017072955
0.8721495064 0.2087592428 0.1604146096
0.8193190389 0.1863128633 -0.0348592483
0.7239798054 0.1103302592 -0.0207128630
0.8204568792 0.2092528204 -0.0166314512
0.7595346451 0.1997041992 -0.0134831616
0.8250812646 0.1698584348 -0.0350567622
0.9147535121 0.0958643227 0.0703315003
0.8247422781 0.0355562652 -0.0175262626
0.8661532538 0.1257268372 -0.0191328446
0.7716531900 0.0892918139 -0.0327732371
0.8836068031 0.1158961472 0.1474924760
0.9127581666 0.2093462671 0.0562415079
0.9258343624 0.1281571105 0.0397427035
0.8113961966 -0.0193965278 -0.0147355156
0.8113433196 0.0023053434 -0.0147661141
0.8548558243 0.0833798736 -0.0182738257
0.8828696657 0.1736170723 -0.0369198971
0.7767905170 0.0468431271 -0.0141416103
0.8696076069 0.0533943312 -0.0188980241
0.8684884869 0.0218885593 -0.0189828040
0.7276072094 0.0858868550 -0.0224448459
0.7784940379 0.1946720284 -0.0140440521
0.9236694560 0.1182925809 0.0363889810
0.9272447869 0.0768022809 -0.0184915552
0.7920134279 0.2240276333 -0.0144970704
0.9396270264 -0.0407207415 0.0094227111
0.9243312387 0.0631918217 0.0393070029
0.9427121901 -0.0003230036 -0.0076759883
0.9072505251 0.0699742449 0.0914201791
0.9409549898 -0.0173293611 0.0142694521
0.8388666705 0.0999822125 -0.0178599442
0.9452204968 0.1331368562 -0.0077331625
0.8897154422 0.1774886734 -0.0371272861
0.9345939360 0.1486930008 -0.0157405059
0.9090551079 0.0105148855 0.0918232962
0.7805599864 -0.0693962441 -0.0311889906
0.9079874747 0.1881966022 0.0797274271
0.8695423192 0.0620852821 0.1721788218
0.7984329136 0.1413154937 -0.0339669357
0.9087200508 0.0188610243 0.0919746854
0.7400417519 -0.0423288356 -0.0125723199
0.9279240421 0.1807015589 0.0205007160
0.7948811280 0.0460248483 -0.0143465091
0.8973553330 0.2085746781 -0.0200512453
0.8900877796 0.0652409280 0.1351687227
0.9217975281 0.1025560045 0.0520078245
0.9107842023 0.0986148286 -0.0199525057
0.8525758234 0.0735293798 -0.0184051693
0.8996941876 0.2313112389 -0.0176906239
0.7858339966 0.0421888496 -0.0141271439
0.9455879338 0.2074095503 -0.0203241772
0.8893908517 0.1014186140 -0.0370234127
0.8862223315 0.0085289543 0.1406199888
0.8638524282 0.1582033685 0.1895002326
0.7790071735 0.2352874913 -0.0141209435
0.8833564652 0.0064323366 -0.0195470689
0.9500212589 0.0433217928 -0.0121577856
0.9108190540 0.2432215864 0.0510116802
0.8962743030 0.1766663088 0.1005135807
0.8660956628 0.0996602189 0.1778082025
0.8835533224 0.1204838161 0.1472417173
0.8895835456 0.0922928804 -0.0193973438
0.9205144184 0.0884360432 0.0564144343
0.9158810961 0.2107073080 0.0482839509
0.8852097351 0.0914466816 -0.0368878800
0.9340717528 0.2077509633 -0.0034418501
0.8920567125 0.0491036145 -0.0370296039
0.9273157273 0.2127694484 0.0291688699
0.7309924271 0.0472507951 -0.0236758126
0.9013071585 -0.0212014956 -0.0372078710
0.9129347615 -0.0569386649 0.0876058152
0.9277625171 0.0457700197 -0.0380712601
0.9427839030 0.0504305516 -0.0125678761
0.8674893456 -0.0052171030 0.1829581519
0.8966123615 0.0162006275 -0.0371175411
0.9119314708 0.1321989243 0.0647745275
0.8962992892 0.1428755797 0.1129597404
0.8802135696 0.1160910932 0.1470053656
0.7588336044 -0.0312144981 -0.0320393320
0.8723758861 0.0911763186 0.1784761145
0.8979703462 0.0893683411 -0.0372622158
0.8874854267 0.1462077570 -0.0370210874
0.9178313253 -0.0687647683 0.0746461941
0.9081074639 0.1610172873 0.0720173872
0.8886290997 -0.0737564949 0.1472295055
0.9469134119 0.0986376223 -0.0090679687
0.9386114789 -0.0758385178 -0.0331738893
0.8667376154 -0.0369916318 0.1933933417
0.9337844525 0.2021769075 -0.0147801982
0.9022272771 0.1701376020 0.0957571620
0.9236836815 0.0852383237 0.0391091877
0.8318647498 0.1750907254 -0.0179349937
0.8454667040 0.2218166962 -0.0358864187
0.7618428859 0.1521087221 -0.0324863495
0.9507272379 0.0482653545 -0.0228945953
0.7400867367 0.0468569982 -0.0288014123
0.8308127144 -0.0566835233 -0.0153056328
0.8518519331 0.1359116810 -0.0182733659
0.7283236206 -0.0027966951 -0.0209282503
0.7434998228 0.0591255951 -0.0130238150
0.7670214925 -0.0282356555 -0.0323886671
0.9360322995 0.1443703857 0.0030475913
0.9003295095 0.0400932752 -0.0372619457
0.8394367675 0.1355459730 -0.0355582888
0.9121068061 0.0435127498 -0.0199041757
0.9236567682 0.0831285311 0.0489475098
0.9119712565 0.1969884972 0.0592519441
0.8807774782 -0.0205232124 -0.0366041438
0.8784362969 0.0243099051 0.1598415530
0.8259195551 -0.0019037426 -0.0348108978
0.8959909781 -0.0753595535 0.1148785861
0.9174514204 0.2177914366 0.0533386568
0.8176912847 0.0893297315 -0.0346367165
0.9415794527 -0.0369432949 0.0143344190
0.9107155672 0.1111168157 0.0695878441
0.9128273710 -0.0323968343 0.0858849964
0.7784854194 0.1887794395 -0.0332368903
0.8685269870 0.0009086199 0.1798851750
0.9449437964 0.0832160020 -0.0032036176
0.9236534123 0.0977317064 -0.0185010662
0.9102553645 -0.0187961865 -0.0374736033
0.9467347704 0.0891893194 -0.0078915054
0.9174241730 0.1618906903 0.0580549123
0.7281139360 -0.0114138210 -0.0124115964
0.7815725929 0.0082871776 -0.0138723852
0.9222316948 -0.0115942093 -0.0184718999
0.9122742338 0.1307341121 0.0736824062
0.9343655084 0.1839522335 0.0141220573
0.9241755452 0.1442487028 0.0425621265
0.8643589475 0.0155050639 0.1930431069
0.9415260062 0.0595133268 -0.0095099329
0.8665509878 0.1015842143 0.1883494284
0.9297200307 0.0677377181 -0.0184863457
0.7759530628 0.0503180499 -0.0328900188
0.9257751769 0.1006927496 0.0421568265
0.9229993507 -0.0513669845 -0.0180139642
0.7859339395 0.1806072198 -0.0142430663
0.7418411835 0.1443953272 -0.0311917672
0.9286700646 -0.0255595584 0.0357720572
0.8867426642 0.1865801087 0.1334948375
0.9154362422 0.0901818078 0.0690780669
0.8716745959 0.0869553573 0.1805552117
0.7611365213 0.1219552328 -0.0138403952
0.9001470922 -0.0075590444 0.1157928116
0.9147129604 0.1589882619 0.0555259281
0.9239711155 -0.0430028595 0.0585924005
0.8849385443 0.1816198138 0.1291232052
0.7961033938 0.1529942857 -0.0145036374
0.9487413532 0.0607772620 -0.0313880213
0.8972577079 0.0714782785 0.1068664013
0.9234558831 -0.0557900000 0.0609236477
0.8440867485 -0.0148415516 -0.0179951960
0.8071312018 -0.0238834966 -0.0340397192
0.9350854792 0.0491875217 0.0134058714
0.7969540676 -0.0495101758 -0.0142778903
0.8033687319 -0.0636584944 -0.0144537556
0.9174587043 0.1483878682 0.0590921404
0.8838986065 -0.0645987164 -0.0366338016
0.9124371821 -0.0778128973 -0.0242321173
0.9409994871 0.0311908767 -0.0004705955
0.8726730951 0.1834849745 0.1612781707
0.9250244771 0.1318446791 0.0414639897
0.8470198631 0.1375247692 -0.0182264974
0.8894121620 0.0284304592 0.1306304345
0.8910177861 -0.0409918245 0.1324081985
0.7754330640 -0.0321898942 -0.0136493664
0.7528087826 -0.0261252221 -0.0129770776
0.8206620322 0.1623981836 -0.0176994501
0.8902566917 0.0521184354 0.1264401145
0.7975621267 0.1068116678 -0.0338671530
0.9245410638 0.0550144418 0.0490558212
0.9035737492 0.1738896179 -0.0375303136
0.8852196359 0.1349486599 0.1417278000
0.8109487557 -0.0171136117 -0.0147239118
0.9311780440 0.1814406125 0.0221803961
0.9340377204 0.0336066810 0.0173595090
0.7287958577 0.1916019275 -0.0249367209
0.9096499354 -0.0270853099 0.0838171136
0.9051125813 0.2412317739 -0.0366935740
0.9409357128 -0.0649754789 0.0015486000
0.9008065279 -0.0175242157 0.1052981379
0.9537165776 -0.0413449661 -0.0166710033
0.7430368586 0.1919336968 -0.0129748502
0.9158605475 0.1768207795 0.0511579005
0.9176063544 -0.0718144909 0.0599252997
0.8893534419 0.2283809574 0.1137775543
0.9082373973 0.0164865987 0.0837502633
0.9409641923 0.0411940623 0.0095285607
0.7613879432 -0.0776704818 -0.0235815579
0.7523647288 0.1158920787 -0.0320062354
0.9333419637 0.0576414990 -0.0183542100
0.8753705944 -0.0122452673 -0.0364544861
0.9378884303 -0.0276934930 -0.0382228452
0.9515173773 0.0245777402 -0.0226970443
0.8606063949 0.1121783479 0.1903763200
0.8846144997 -0.0719219425 0.1439147481
0.9010133580 0.0191978395 0.1113756738
0.8333162392 0.1145720884 -0.0176984946
0.8671183219 0.2193673548 0.1810412278
0.8713212133 0.2268566369 0.1609301775
0.8903798927 -0.0600434037 0.1356401017
0.7859776501 0.2418200321 -0.0233449916
0.9278058317 0.0136146220 0.0442848591
0.9096446746 -0.0004165606 0.0912470982
0.8914301198 0.0779500797 0.1212681767
0.9202688564 0.1454064533 0.0427032396
0.8265455543 0.0250794374 -0.0348790777
0.9072918117 -0.0156452929 0.0984684675
0.7725290773 0.0822229154 -0.0327980234
0.8882546285 -0.0007437962 0.1454566614
0.8957024403 0.1031359546 0.1081701857
0.8937098021 0.1791973308 0.1068406249
0.9344163502 0.1511497509 0.0166653238
0.8213658624 0.0936064974 -0.0347874083
0.8684592418 0.1568325299 0.1827168103
0.7860901990 0.0955772731 -0.0333817810
0.9243807926 0.2162766268 0.0361225719
0.9155664296 0.0816369740 0.0598105035
0.8765558381 0.2166824145 -0.0367936803
0.9150344483 0.0559370862 0.0632894044
0.9285202122 0.0620001687 0.0384881586
0.9090507188 0.1130510404 -0.0200642806
0.8928356920 0.1440682301 0.1216179121
0.8810230915 -0.0556070298 0.1687185554
0.8931933766 -0.0009926216 -0.0369939610
0.8875732844 0.2398687856 0.1246337474
0.7324787405 0.0552293014 -0.0246563967
0.9242198729 0.0648612364 -0.0379973774
0.7456185857 0.0557128829 -0.0314154329
0.9369455238 0.1548756421 -0.0005208426
0.8871955465 0.1203635705 0.1378970785
0.8711515373 0.0147591491 0.1720711011
0.8607599832 0.2194885157 0.1910073637
0.9252840471 -0.0213417336 0.0439340671
0.9212382585 -0.0408181410 0.0653140145
0.8034133380 -0.0185583777 -0.0144977006
0.8769729605 0.2417611507 0.1368577798
0.9310405042 0.0720876964 0.0216844481
0.7957340751 0.0290352890 -0.0143258616
0.9156852103 0.0844769036 -0.0195909616
0.9353830282 0.1701936379 0.0025480736
0.7549704963 0.2419006937 -0.0197207291
0.9459044416 -0.0727392905 0.0035579735
0.8628883416 0.1841506306 0.1788509187
0.9336859791 0.1435090860 0.0090511557
0.9181001663 0.0467704471 0.0659502922
0.7417570328 0.1410418975 -0.0311057811
0.8736088554 0.0203229617 -0.0364468177
0.9236878056 0.0533030625 -0.0184732653
0.9409907127 -0.0574826981 -0.0184728714
0.8466970592 0.2183824301 -0.0359203658
0.9114925872 0.1759173882 0.0718909630
0.8953439781 0.1544989571 0.1047555956
0.9089513459 -0.0709133504 -0.0175514171
0.7754986553 0.0521280290 -0.0141376988
0.9292978754 0.0283203147 -0.0184413279
0.7490992335 0.1342827246 -0.0130602094
0.8833248061 -0.0624013199 0.1541191852
0.9372760053 0.2008222515 -0.0103872572
0.9321591368 0.0464083459 -0.0184583656
0.8804249414 -0.0714590163 0.1698565579
0.9172193377 0.2363921643 0.0355827986
0.8713761777 0.0780604975 -0.0364626835
0.8778037765 0.1851186346 -0.0194695502
0.7730225594 0.0111182512 -0.0136185004
0.9179499053 -0.0102987727 0.0711150025
0.8837933325 0.1840456382 0.1412389507
0.9360735318 -0.0720207025 0.0143619962
0.7539254971 0.2417029619 -0.0134080293
0.9328562972 0.2449606562 -0.0033231860
0.8962468519 0.2324284470 -0.0175927250
0.8678148023 -0.0350718700 0.1845923849
0.9045298064 -0.0363018874 0.1071476530
0.9125803216 0.2414108749 0.0466017148
0.7467170943 0.0137185035 -0.0128308118
0.7976157754 0.0811092540 -0.0144895036
0.8586868524 0.1581691799 -0.0190728486
0.9461798112 0.0635863389 -0.0345631686
0.8958648381 0.0477471314 -0.0195782437
0.9004199638 0.0853232167 -0.0373293401
0.7487593478 0.1929622709 -0.0131488422
0.9090742432 -0.0323470760 0.0857005354
0.8819677262 0.0471513788 -0.0195045035
0.9136999202 0.1592553278 0.0580540831
0.8198269778 -0.0349399231 -0.0154115509
0.7367344353 0.2099984049 -0.0128142665
0.9024667214 0.1866673495 -0.0202111742
0.8880343552 0.0362956306 0.1335185285
0.8286398212 0.1040077311 -0.0178860754
0.8100205261 0.0445952483 -0.0147916560
0.8769729822 0.0374944933 0.1627080178
0.9113542176 0.1583753735 0.0640424449
0.7237536705 0.1198926805 -0.0124749846
0.9052901454 0.1323439360 0.0911686806
0.8405469139 0.0756702676 -0.0355098380
0.8813219791 0.1104680084 0.1538625619
0.8966452592 -0.0239063048 0.1260186949
0.8237339941 0.2047097358 -0.0350567164
0.8645871468 -0.0687023381 -0.0358807932
0.8703592163 0.1664314428 0.1772912813
0.8675766475 0.0489922045 0.1893593136
0.8998200062 0.0487706105 0.1119263440
0.8667627182 -0.0776301860 -0.0163489382
0.9184495759 -0.0584406693 -0.0178584126
0.9262596221 -0.0191389548 0.0413059941
0.7655621327 -0.0549168064 -0.0322626056
0.8181646182 0.0450381481 -0.0156125638
0.8848175195 -0.0671396303 -0.0366477055
0.7522111516 -0.0673078064 -0.0297232030
0.7342103308 0.0309129707 -0.0124662889
0.9065293843 0.0607046478 -0.0374740865
0.8562789483 0.1591338727 -0.0361201337
0.8734784382 -0.0199179688 0.1689328871
0.9482185091 -0.0110737206 -0.0035872329
0.8939308514 0.2277341475 0.1020681972
0.8636053930 0.2304735839 -0.0364290690
0.9277224544 -0.0465561881 0.0494761308
0.9143672358 0.1871817542 0.0540439636
0.8904957390 0.1215927630 0.1199731860
0.7999387752 0.1117560441 -0.0339715507
0.9269601360 0.1408890049 0.0262332801
0.8778387160 0.0793114324 0.1565238955
0.7530938832 -0.0737793263 -0.0129309795
0.8779510895 -0.0652193883 0.1669855493
0.9470521646 0.0772518702 -0.0077121598
0.7952002594 0.0623945554 -0.0336968608
0.8306542730 0.2181184577 -0.0353470079
0.9505343229 0.0326929917 -0.0285955882
0.8987594860 0.0486393360 0.1049611296
0.8430910340 -0.0581386763 -0.0156763555
0.7252564235 0.0562600666 -0.0155006065
0.9023865515 0.0775079379 0.0933624795
0.9301820769 0.2114564809 -0.0383116308
0.8734397491 0.1117707801 -0.0191832774
0.8777613056 0.1173514576 0.1624427664
0.8701740793 0.1702980802 0.1774372115
0.8965395007 0.0688487441 0.1185306279
0.7500091828 0.2413420339 -0.0132854942
0.8235611725 0.1877298587 -0.0178919568
0.9262133111 0.0532174134 -0.0380365297
0.7427839638 -0.0687119513 -0.0258054575
0.9016507841 0.0542195089 0.0971408143
0.9461770049 -0.0765158926 -0.0219228405
0.8752874954 0.1457621378 0.1663734134
0.8917124110 -0.0323116257 0.1392428864
0.8161742096 0.1619895703 -0.0346988840
0.9147132902 0.2265347782 0.0594372593
0.9331575143 0.1686168932 -0.0164942149
0.9414194509 0.0326914339 -0.0132789030
0.8674400183 0.1675020025 -0.0364571964
0.9331102625 0.0814656123 0.0157085999
0.7511746736 -0.0738466267 -0.0258402808
0.8885902358 -0.0393012277 0.1385743610
0.8907871165 -0.0191969649 0.1405149352
0.9021420216 -0.0402645293 0.1037939144
0.9307968055 -0.0400493847 -0.0183951494
0.8999132634 0.1761144366 -0.0374258862
0.9324756779 -0.0645700121 0.0244732930
0.9135403348 0.1326368938 -0.0201267909
0.8664339570 0.1399948244 0.1735675379
0.7621168617 0.1980361608 -0.0135579407
0.9062038570 0.1111659619 0.0906265841
0.9225389226 0.0262376271 0.0564736947
0.8439875502 0.2441079584 -0.0277847687
0.8646462894 0.1467361177 -0.0187891960
0.9245024155 0.1938788794 0.0376631303
0.9494424543 0.0245116550 -0.0320810043
0.7837509812 0.2037923359 -0.0334686481
0.8570884134 0.2028486156 -0.0362055318
0.8835074645 -0.0494577471 -0.0366486400
0.7468801305 0.0807572305 -0.0316892546
0.8842542258 0.1603044886 -0.0369420584
0.9152257362 0.1789375881 0.0525778716
0.9182690434 -0.0317985985 0.0624342160
0.9172418800 -0.0458523311 -0.0376422886
0.9446698546 0.0727158520 -0.0017439818
0.9294728704 0.0737536335 -0.0381576259
0.8079044768 0.1735366378 -0.0343960781
0.7842111733 0.2124726676 -0.0142456549
0.9070267702 0.2342133798 -0.0178969843
0.9100249845 -0.0617086338 0.0855491663
0.9206335651 -0.0227439616 0.0557158089
0.9090680902 0.0247351707 0.0906072481
0.8839341162 0.0965791050 0.1389837060
0.7325772041 0.0456978649 -0.0245481700
0.8647607582 0.0794810579 0.1918737234
0.8759168918 0.2070229610 -0.0192999016
0.8670102069 -0.0191298114 -0.0189030541
0.8355410625 -0.0800082686 -0.0157056043
0.7655744728 -0.0533872622 -0.0133297574
0.7402071150 0.2033711520 -0.0129081226
0.7999338496 0.0260097269 -0.0144479941
0.7888950592 0.2058460341 -0.0336810188
0.9006738649 -0.0056986082 0.1143083005
0.9515152238 -0.0367322905 -0.0093497546
0.9036103066 0.1346949292 0.0855652631
0.9129913212 -0.0751509739 -0.0176457586
0.9445147353 0.0797967729 -0.0019334078
0.9018030030 0.1761824977 0.0866635478
0.8986037319 0.1730050056 0.0949459638
0.8704185783 0.1879199699 0.1753150865
0.8433569019 0.2150767067 -0.0358113852
0.8057621349 -0.0082469893 -0.0340134054
0.8828222481 -0.0525507084 -0.0366243027
0.9031346150 -0.0601123520 -0.0372078308
0.8500970242 0.0197993399 -0.0357541550
0.8315959609 -0.0052665488 -0.0176724424
0.8903151916 0.1714474905 -0.0200613468
0.8710845766 -0.0569175438 0.1893638191
0.9139996269 -0.0328366880 0.0829694518
0.9273369231 0.1059599534 0.0378176607
0.8788611901 0.0726442334 0.1634000823
0.9303370018 0.0036892649 0.0387682209
0.8596341616 0.1377336337 0.1906420186
0.7306184094 0.0046603380 -0.0226431208
0.8737056732 0.1510121647 0.1613632075
0.9436284603 0.1161348827 -0.0026715830
0.8537980869 -0.0604813853 -0.0159917424
0.9167239494 0.0902980794 0.0658061398
0.7923099449 -0.0714042849 -0.0302050750
0.9166279095 0.1134142347 0.0544855623
0.8306320749 0.0783504057 -0.0175858022
0.9094643446 0.2335740053 0.0717438794
0.8665247757 -0.0524966334 0.1891747329
0.9133343586 0.0739368813 0.0757529585
0.8790859635 0.0315466454 0.1574230024
0.8910176645 0.1265094821 0.1182272387
0.7214542198 0.1713502096 -0.0156080518
0.9310373438 0.0956505360 0.0295010349
0.7385222022 0.0431814859 -0.0278531806
0.7831605742 0.1615302639 -0.0333871924
0.8016197816 0.0606472489 -0.0339530965
0.8754946271 0.0188486344 0.1678246271
0.7824268552 0.0331299493 -0.0139986289
0.7987616404 0.0378050094 -0.0144427787
0.9029120255 0.1755380690 0.0935769479
0.8587461217 0.1709673104 -0.0188039657
0.9202242061 0.0729456794 -0.0378929334
0.9252991892 0.0700200265 -0.0184845457
0.7618286467 0.1284112964 -0.0134723800
0.9229862492 0.1190143375 -0.0380287827
0.9040716992 0.1551125979 -0.0197970365
0.7807413645 0.1265011960 -0.0140590887
0.8831048059 0.0660498578 0.1530435621
0.9189574168 0.0324320477 -0.0185028958
0.8862662195 -0.0528398808 0.1550293771
0.8883122793 -0.0659677291 0.1506467699
0.8236691761 0.2117404811 -0.0350652408
0.9401767845 0.0558794202 -0.0017597593
0.9268457681 0.2472650739 -0.0185571124
0.9271659374 0.2347141334 0.0160696654
0.9074108155 0.1242152115 0.0864906083
0.8279583332 0.1018295658 -0.0177675471
0.7273899604 0.0637564995 -0.0124217942
0.8642544918 0.1877782351 -0.0187531893
0.8752223734 0.1120907195 -0.0366172293
0.7204999797 0.1996020758 -0.0164001946
0.8801826417 0.1077050071 -0.0197005901
0.7974596578 0.2380070260 -0.0276584074
0.8886295043 -0.0233006964 0.1370894303
0.7701544048 0.0376989131 -0.0139806867
0.7762230547 -0.0360127811 -0.0136689789
0.9023521122 0.1519162647 -0.0374658157
0.8104264085 0.1048370229 -0.0343772660
0.9259846779 0.1616053392 0.0366130641
0.8649763619 -0.0308741872 0.1924217715
0.9436647675 0.1980504535 -0.0322309392
0.8534610999 0.1061349117 -0.0183607530
0.9055886343 0.2228667714 -0.0178684832
0.8759857902 0.0614950253 0.1631870389
0.8282234133 0.0595592226 -0.0349983729
0.8901551318 -0.0174516171 0.1326317890
0.7610417864 0.0251906202 -0.0322251388
0.8898399717 0.1256214367 0.1213120456
0.9355832601 -0.0094515626 0.0170379837
0.8638674241 0.1444975113 -0.0363243808
0.9140474460 0.1569268269 0.0573707521
0.9333803916 0.1698283944 0.0076287714
0.8594676100 0.1469394547 0.1926241656
0.9014126321 0.2456762584 0.0835837771
0.8697949696 0.1040874788 -0.0187621951
0.7345083047 0.1594154750 -0.0126649660
0.8838106291 0.2264852448 0.1281747063
0.8986536550 0.0889160441 0.1115334170
0.8949059271 -0.0299970852 0.1309307865
0.8596157975 0.2239442705 -0.0165363767
0.9457961127 0.0147873362 0.0000815016
0.8907386161 0.0452605595 -0.0192585523
0.9127972574 0.0556823338 -0.0376507100
0.7850928876 -0.0224562048 -0.0331533757
