0.9010239679 0.1302629511 0.0924174277
0.6661880049 0.1309095725 0.2452930929
0.6650244007 0.1345019413 0.2240650067
0.8618341239 0.1027238891 0.1107477815
0.9067623840 0.1064911830 0.0480064576
0.8240197666 0.1504799782 -0.0042559680
0.8920816503 0.1036066009 0.1045416522
0.6209540725 0.1311993845 0.1868500286
0.6319864644 0.1126508365 0.1953398598
0.7913162241 0.0990212992 0.1827569189
0.5979404437 0.0461533772 0.1675354667
0.6196807390 0.0664866592 0.1830559059
0.7756272580 0.1199819217 0.1999008718
0.9045826129 0.1033366868 0.0193912695
0.6321560013 0.1633138499 0.2058967180
0.8809452828 0.0502559330 -0.0045545848
0.8645237682 0.1303590588 0.0570740544
0.8554791343 0.0924858094 -0.0043393992
0.8936973894 0.0933578278 -0.0045208500
0.6084300306 0.1133390204 0.1963077768
0.6791706372 0.1225927920 0.2390478561
0.9004370912 0.0919127629 -0.0260087066
0.8679204659 0.1405715405 -0.0044881449
0.8062618459 0.1099507328 0.1758737629
0.9033568005 0.1284048692 0.0982304079
0.6272126347 0.1503019199 0.1928901655
0.6735827433 0.1030688630 0.2500784493
0.6799478159 0.1220857343 0.2461884928
0.8641338686 0.1716488891 -0.0259092744
0.6366134288 0.0969753760 0.1985890038
0.8640707717 0.0968561030 -0.0034558283
0.7581425951 0.1086294775 0.2021893036
0.7734595649 0.0791761281 -0.0127540373
0.8322712445 0.0683806389 -0.0255581224
0.6380205304 0.1445449322 0.2229042534
0.5933844767 0.1500533245 0.1848792303
0.6260506467 0.0465784345 0.1876041607
0.7902066817 0.0579023788 -0.0070273901
0.8058539684 0.1772435456 -0.0043939083
0.8605749516 0.1258557994 0.0403169485
0.8411478994 0.1231569711 0.1191116876
0.8839220263 0.1243840884 0.1011121672
0.5846350733 0.1292204661 0.1763045416
0.8560886528 0.0814579097 -0.0043276471
0.8658520475 0.1212194156 0.0788029785
0.7858615237 0.1051139962 -0.0039544846
0.6275948555 0.1644979892 0.1989417888
0.8795633494 0.1358233184 -0.0259521787
0.6148007426 0.1109803157 0.2017225458
0.8426241816 0.1200311375 -0.0257049651
0.8438004773 0.1051235575 -0.0256885798
0.7504627333 0.1029991650 0.2351286906
0.9068054750 0.1066257955 0.0406877057
0.8877826864 0.1268802822 -0.0259871153
0.8439853981 0.1071264545 0.1073878794
0.8937001919 0.1339241589 0.0534753206
0.8867820614 0.0612736741 -0.0255435209
0.5779817158 0.0651060947 0.1530623870
0.8860788560 0.0528426792 -0.0115182877
0.5850382736 0.1211698173 0.1560870924
0.7953222037 0.0692759695 -0.0039580330
0.8092158424 0.1697291472 -0.0255589761
0.9003542546 0.0990881376 0.0512795301
0.7992578153 0.1355325131 -0.0254659642
0.6349895255 0.0481778976 0.1951553306
0.6734653006 0.1138275721 0.2504063919
0.7687552564 0.1102220866 -0.0038724224
0.7710052023 0.1307768943 -0.0198520974
0.7777674519 0.0723956461 -0.0145476663
0.7852893301 0.1614112940 -0.0052640562
0.7451622993 0.1167266256 0.2397703365
0.8810483045 0.1000925882 0.0998137121
0.5854583792 0.1519172177 0.1700569605
0.6162733656 0.1186490898 0.1823932778
0.6603726619 0.1337203151 0.2407931608
0.7256252845 0.1151912350 0.2589006134
0.8529187967 0.0394678558 -0.0098856516
0.6525536805 0.0634971356 0.2315706395
0.7840439259 0.1521574552 -0.0237463781
0.8627807499 0.0996088077 0.0683496457
0.6752979523 0.0796490538 0.2470897486
0.8777494702 0.1757704379 -0.0046784530
0.8504678455 0.0428227428 -0.0042638755
0.7364277596 0.1164094073 0.2254919447
0.6090379301 0.0427675294 0.1757177284
0.6514766078 0.1234543381 0.2122571578
0.6033232848 0.1381927731 0.1929590487
0.6693285451 0.1194017627 0.2473444764
0.6475555593 0.1147389932 0.2085920640
0.7911742148 0.0888230978 -0.0039600981
0.8201025290 0.1135053923 0.1333701975
0.7867932236 0.0671039465 -0.0222349041
0.8752108824 0.1222805243 0.1037962539
0.8903844530 0.1347655612 -0.0011684732
0.8533445757 0.1852330943 -0.0053498351
0.5648743233 0.1216071779 0.1585846364
0.7912290580 0.1587104315 -0.0251400531
0.7813795483 0.1187550457 0.2016242365
0.6781821332 0.1024541423 0.2336064504
0.6249022154 0.0959726317 0.2097717145
0.6945761879 0.1162291852 0.2620231269
0.6411126162 0.0771692233 0.2015614240
0.6058793254 0.0393014370 0.1867208070
0.8568088270 0.1236409192 0.1067928036
0.9056815717 0.1097098554 0.1103914758
0.8097345950 0.1109547690 0.1721670842
0.8739520609 0.1031360406 0.1019987507
0.7583649105 0.0973141366 0.2219396757
0.8185080381 0.1039703639 -0.0255326351
0.7818691312 0.1079858481 -0.0253162138
0.6193071018 0.1487271097 0.1862033044
0.8060520203 0.1439934211 -0.0041367616
0.8345902499 0.1013259789 0.1347330861
0.6837400649 0.1203391823 0.2529208565
0.8444400089 0.1020847970 0.1213664238
0.7503409454 0.1107467416 0.2108793879
0.7482490866 0.1182892479 0.2237875041
0.7736277732 0.1027807240 0.2107804261
0.8155635362 0.1221356206 0.1642788827
0.8395006033 0.1794991908 -0.0043954977
0.7027752205 0.0944296746 0.2518699435
0.7897859587 0.1338543732 -0.0254057455
0.7904434661 0.1650471054 -0.0173957088
0.7668907523 0.1183399329 -0.0039945743
0.8336910177 0.1677252978 -0.0043376579
0.8285174135 0.1179881874 0.1239816809
0.7449503277 0.1153977304 0.2401695333
0.6001570514 0.0973055825 0.1884144133
0.5991329053 0.1336564807 0.1686705387
0.9031783774 0.1278743006 0.0168242538
0.8076382171 0.1217409108 0.1707162858
0.6261565050 0.1563819579 0.1923001571
0.8530370907 0.1496033460 -0.0258121388
0.7876682285 0.1512807898 -0.0253957971
0.8974326782 0.0719573862 -0.0255168805
0.8866893827 0.1145117227 0.0945164649
0.8469758781 0.1697788988 -0.0258073718
0.8263278503 0.0910187219 -0.0255595367
0.9128882273 0.0909894925 -0.0181471068
0.6635453760 0.1152720944 0.2220206630
0.6614511707 0.0878612972 0.2397815140
0.5881280023 0.1282794030 0.1793127972
0.7322999051 0.0959859174 0.2454612224
0.7836663970 0.0879329641 -0.0039163897
0.7518658926 0.0971953359 0.2252047132
0.5987829079 0.1218618571 0.1678717575
0.8213038428 0.1432673456 -0.0256105987
0.8756442216 0.1044359528 0.1043304496
0.6050689805 0.1390288083 0.1945132816
0.6341046057 0.1491605522 0.1986668854
0.8527493584 0.1037647511 0.0977447212
0.8606797494 0.1165331471 0.0271978700
0.7939548385 0.1693655769 -0.0059189176
0.6300704910 0.0993696941 0.2143198760
0.8618342639 0.1109753840 0.0588072909
0.5680459101 0.1051676501 0.1456751627
0.5919624279 0.0462944015 0.1711930043
0.5807806373 0.0848131674 0.1709726518
0.6820099368 0.0943192866 0.2371520741
0.8882776270 0.0937763405 0.0339213692
0.7822252639 0.1168526971 0.1748133201
0.6379695962 0.0795048949 0.2201397916
0.9105527915 0.0909912613 -0.0217129212
0.5691971831 0.1144821300 0.1620999653
0.8194168420 0.1823946234 -0.0044175859
0.6192204317 0.1573805359 0.2075356303
0.8478749613 0.1575241495 -0.0044038571
0.6857054263 0.0906200565 0.2442437512
0.8921598737 0.1342771055 0.0103779574
0.8572557503 0.1182406597 0.0152905573
0.8349171898 0.1147596147 -0.0042547662
0.9043481541 0.1031662794 -0.0005952635
0.8799822598 0.1156519574 0.0990595739
0.7814516936 0.1063165812 0.1762672339
0.8907024573 0.1403695018 -0.0046224872
0.7840110886 0.1204216739 0.1773170394
0.8559600528 0.1130490020 -0.0257738485
0.8007485660 0.1628143124 -0.0041393404
0.8557764966 0.1241102852 0.1167041362
0.6711598736 0.0763495903 0.2469746972
0.8606579083 0.1130481078 0.0224394048
0.9040554725 0.1345464932 -0.0260963707
0.5850750542 0.1177216035 0.1761743035
0.6389289619 0.1322234255 0.2020443365
0.8853604682 0.1581789112 -0.0046295125
0.8419264702 0.0811721065 -0.0256383316
0.8832035419 0.0813198150 -0.0258885576
0.9073990370 0.1080880670 0.0307077907
0.6023990413 0.1608667617 0.1811654036
0.8773405023 0.0935063180 0.0398015585
0.6977245329 0.1036668077 0.2465230682
0.7704110993 0.1167988720 -0.0038934089
0.6574234659 0.0795584207 0.2154241823
0.8640886258 0.1522417082 -0.0044886195
0.6179784981 0.1515270451 0.1852117225
0.6144510123 0.0568230653 0.1990796986
0.6782571169 0.0921475136 0.2333598095
0.5812375168 0.1425828937 0.1739435661
0.6547043150 0.1062766255 0.2142563124
0.8852652872 0.1355695041 0.0025504657
0.9074558434 0.1008226484 -0.0046677749
0.9042784128 0.1024489100 0.0885938473
0.8641803377 0.0979562033 0.0121053108
0.6284898022 0.0789067605 0.1909794572
0.7747552970 0.1275740917 -0.0252519554
0.6082943301 0.1196995935 0.1757787420
0.8611501635 0.1114488686 0.0453421155
0.5849317901 0.0937387757 0.1547809341
0.8381220024 0.1069833274 -0.0042598266
0.6567989920 0.1373263165 0.2380632895
0.8489184330 0.1022325972 0.1159136616
0.8625560498 0.0991256913 0.0087909213
0.8810545185 0.0966920908 0.0997510906
0.7551767340 0.1188434385 0.2153974790
0.6750319106 0.1287230751 0.2400939012
0.8276712629 0.1184317382 -0.0042195114
0.6822500895 0.0925437773 0.2565673251
0.8883192870 0.0937887617 0.0860356243
0.8406956144 0.0966048637 -0.0042574134
0.8870934559 0.1568334663 -0.0260274955
0.6228236445 0.1147181096 0.2087927173
0.6495221366 0.1496302428 0.2326561107
0.6136713361 0.1141546795 0.2008845971
0.8425618242 0.1036537055 0.1384217974
0.6485421020 0.0828668068 0.2080792244
0.6161048753 0.0551708639 0.1795891751
0.7890658380 0.1207748330 0.1702469343
0.8613875300 0.1224936221 0.0658455009
0.8263955404 0.1310178073 -0.0042352768
0.5791686152 0.1424198662 0.1721296727
0.5869992246 0.1377741181 0.1787621012
0.6424472606 0.0758830090 0.2237217481
0.6003660583 0.0804398070 0.1674536316
0.8861828591 0.0878986539 -0.0045137316
0.6194279148 0.0374345838 0.1975206599
0.7822910930 0.0666088011 -0.0157300759
0.9031767874 0.1284446156 0.0852698400
0.8196402303 0.0416974260 -0.0053595787
0.8615477625 0.1218062633 0.0718711637
0.7075559990 0.1022408628 0.2462864230
0.8837444565 0.0921576919 -0.0259088675
0.7742879803 0.0865256931 -0.0212546751
0.7790033607 0.0960051859 -0.0039009618
0.8308660187 0.1328234184 -0.0256530103
0.8555634200 0.1115904617 -0.0257690894
0.8303016630 0.0391652412 -0.0069991347
0.8674107930 0.1322059362 0.0341483442
0.8979102428 0.1319806133 0.0327652274
0.9090094636 0.1135234142 0.0919821672
0.8293607834 0.0521264550 -0.0255166677
0.6035287223 0.0562086539 0.1895746055
0.5929893509 0.0844821375 0.1613147379
0.8143099047 0.1065942969 0.1675876221
0.8142314630 0.1747065768 -0.0247724541
0.6093556194 0.1556717081 0.1782428488
0.8675109290 0.1814822286 -0.0109068867
0.8849655753 0.0755830013 -0.0258917697
0.8618195146 0.1095116220 0.0549400742
0.8995673092 0.0985815726 0.0081905542
0.8472646349 0.1236544658 0.1243523297
0.5625689358 0.1096647955 0.1559290968
0.7795147233 0.1546184992 -0.0112726327
0.8900096030 0.0610147136 -0.0222568706
0.5977534332 0.0606210096 0.1644184780
0.7808126561 0.1226778162 -0.0253356027
0.6448427839 0.1567275848 0.2103912973
0.7106536081 0.1163397495 0.2647918970
0.5859581511 0.0795191209 0.1752729871
0.8224654098 0.1047196769 0.1313026606
0.8693471601 0.0945280021 -0.0258255084
0.7693673812 0.1177580354 -0.0038942844
0.6121241953 0.1056303161 0.1783833882
0.6168526872 0.1393406796 0.2047205545
0.6292741711 0.0631471302 0.2120998712
0.7935157782 0.1033874615 -0.0039963466
0.8127355966 0.1322738448 -0.0255413741
0.6038221646 0.1621162849 0.1867280705
0.8648433904 0.1017919325 -0.0258102724
0.5964133713 0.1148059720 0.1859280479
0.8598874137 0.1495272865 -0.0044587169
0.6145640582 0.0398531803 0.1777206779
0.6117708703 0.0726465095 0.1974393950
0.6032066955 0.0840262074 0.1700129911
0.8756531446 0.1350993791 0.0127789703
0.8553509829 0.1180449879 -0.0042866361
0.8541605989 0.1607515716 -0.0258378886
0.8122873484 0.0734988239 -0.0040643251
0.7245742167 0.1098013714 0.2375499640
0.6124372580 0.0510647149 0.1970905354
0.6144040151 0.1642478880 0.2031858290
0.8311824663 0.1092371598 0.1215524795
0.7954621565 0.1598647805 -0.0041032607
0.9095731239 0.1439365220 -0.0048775364
0.9081651869 0.1199475168 0.0673625119
0.8573840350 0.0402662778 -0.0071951911
0.6171220546 0.0664293065 0.2017995638
0.8536690762 0.1020267220 0.1016103364
0.5739818191 0.1400368581 0.1674725621
0.7953570729 0.1363188290 -0.0254433398
0.8639844252 0.0465265705 -0.0043256776
0.8200803076 0.1626049301 -0.0256307935
0.7460470135 0.1056111839 0.2396735748
0.6466141386 0.0444117893 0.2059871634
0.7936724344 0.1035099542 -0.0253832403
0.8994835896 0.1504504547 -0.0256486595
0.8496907371 0.1745220577 -0.0044438359
0.8066031133 0.1215670705 0.1647839795
0.8678057747 0.1323715936 0.0538809211
0.6292844089 0.0548972192 0.1906265059
0.6765457850 0.1061947710 0.2525635956
0.7909629946 0.0834584217 -0.0253331600
0.9022686099 0.0780206687 -0.0250929481
0.8533199534 0.1214079092 0.1264168139
0.8530171328 0.1235990931 0.1127952158
0.8343416808 0.0674356421 -0.0041836074
0.6115457350 0.0851987539 0.1770501189
0.8859654732 0.1491358171 -0.0046154202
0.8068390717 0.0890224144 -0.0254386831
0.8692675858 0.1695457322 -0.0259405870
0.9092699178 0.0937609648 -0.0046747339
0.6374213573 0.0694267064 0.2192564723
0.6225500594 0.0374555485 0.1946886154
0.7470797270 0.0970696616 0.2310297631
0.6254665339 0.0505517347 0.1872533116
0.8797071459 0.1357503926 0.0020057175
0.7940710772 0.1694661581 -0.0104188420
0.8963483774 0.1327496578 0.0122201985
0.6362044337 0.0807690173 0.1975556987
0.8235156536 0.0502240570 -0.0040964140
0.5753446158 0.1240412767 0.1679319567
0.5811635429 0.0933684992 0.1515299889
0.8702172387 0.1334937733 0.0897675797
0.7092336010 0.0948166441 0.2642414756
0.7972158435 0.1719021769 -0.0129315597
0.7503384421 0.1187906265 0.2111882605
0.8256922344 0.1841451673 -0.0144759023
0.8143983974 0.1220436160 0.1437513272
0.8954063817 0.1089513412 0.1060579381
0.6253119434 0.0534348236 0.2082928239
0.5947590060 0.0499663305 0.1624499783
0.6024719791 0.1288259497 0.1918078948
0.7791124163 0.0701510848 -0.0073116244
0.5678310450 0.1117296353 0.1469479239
0.6115328730 0.0582496188 0.1759010626
0.8092425316 0.0821107610 -0.0254421368
0.8777368029 0.1340639386 0.0358620223
0.8512342991 0.0872073841 -0.0043063822
0.6563167172 0.1389771706 0.2377481423
0.5846071208 0.0597465772 0.1558137791
0.7442543149 0.1024682413 0.2171524416
0.7725595651 0.0811748301 -0.0121176376
0.8124079977 0.1072384294 0.1420985335
0.6308818777 0.1543774808 0.1961735167
0.9090821456 0.1133492335 0.1102319091
0.8509911555 0.1023487880 0.1164200915
0.8785783509 0.0479433885 -0.0109622730
0.8490675173 0.0783536028 -0.0042817131
0.9061325726 0.1239604614 0.0126376726
0.6244488668 0.1239802159 0.1894827608
0.8115239588 0.1744354627 -0.0235211969
0.8610466645 0.1109171669 0.0297312173
0.9082769604 0.1095293064 0.0729348381
0.8563925428 0.0427421584 -0.0043270010
0.7989998561 0.1287661436 -0.0040690862
0.7698190465 0.1172419631 -0.0219839867
0.7523485528 0.1011144830 0.2092258198
0.7991539524 0.0581984166 -0.0248394963
0.8249860424 0.0636624791 -0.0041236969
0.8337568482 0.1182193609 -0.0042532892
0.8868309033 0.1075846981 0.1014034289
0.8563867441 0.1237700797 0.0925802988
0.6952287285 0.1164031075 0.2517787490
0.8981426830 0.1339188882 -0.0046033611
0.5894576412 0.1032044357 0.1590834523
0.5953752586 0.1191433436 0.1648510744
0.8012734925 0.1403093722 -0.0041021590
0.8613294835 0.1172763591 0.0513923172
0.6031566132 0.0480833106 0.1889054835
0.9109401916 0.1244903984 -0.0047316710
0.6599739805 0.0874724979 0.2385718941
0.8562993954 0.1149449937 0.0090682535
0.8408414401 0.1233812745 0.1113661981
0.7727485222 0.1201601075 -0.0252105994
0.5740647858 0.0620153017 0.1614007734
0.6394976850 0.1363548808 0.2026986977
0.7672572423 0.1159486337 -0.0179659846
0.5805416115 0.0775780226 0.1704491024
0.5980645182 0.0998275640 0.1867064450
0.5912831079 0.1467911515 0.1829111483
0.6716527577 0.0672812622 0.2306116010
0.9100751506 0.1440895556 -0.0159524732
0.8524623717 0.0725926629 -0.0042958676
0.5971773027 0.0813710334 0.1647731389
0.6495181201 0.0473471671 0.2217572566
0.5834993177 0.1346424004 0.1554830399
0.6087660612 0.0786722996 0.1744572395
0.6268668661 0.1339790462 0.1919312869
0.8513101079 0.1669935817 -0.0258303281
0.9088422273 0.1120601632 0.0998476604
0.6036898154 0.0443495202 0.1704647181
0.7302373143 0.1159295154 0.2550077284
0.8404769936 0.1063015081 0.1404638236
0.5841093974 0.0717451880 0.1733218027
0.8980344039 0.1320552726 0.0693283231
0.9049881063 0.0716882925 -0.0119346486
0.7844974136 0.0758125321 -0.0039090340
0.7757128839 0.1486342582 -0.0047058988
0.8334898446 0.1201924643 0.1469089570
0.8994358002 0.0983867621 0.0482944700
0.8060020845 0.1637928515 -0.0041702747
0.8974132077 0.0701314456 -0.0045686073
0.6644242882 0.1305053560 0.2438815372
0.6789319307 0.1225133805 0.2490445558
0.8842773210 0.0514752313 -0.0094592932
0.7300459190 0.1011043283 0.2562020300
0.5752068121 0.0593174230 0.1639951930
0.8078431862 0.0533197404 -0.0251162234
0.5781488926 0.0628959008 0.1555224777
0.8684811037 0.0957073052 0.0764263684
0.8715219045 0.0942956571 -0.0013827095
0.8621293225 0.1025964755 0.0529858374
0.8384176733 0.1132559303 0.1422219483
0.7390412018 0.1181698936 0.2261850023
0.8681087066 0.0957526765 0.0373714696
0.8652351450 0.1091782629 0.0807890071
0.8607826805 0.1269423962 0.0463786888
0.8141538877 0.0614835122 -0.0040571099
0.8244465612 0.1705343540 -0.0256722546
0.8614176774 0.1147400711 0.0498298199
0.7843996590 0.1006774545 -0.0039388032
0.8190386678 0.1237314125 -0.0255667349
0.8632967064 0.1293892094 0.0460228139
0.8636205878 0.0983525380 0.0288499589
0.8780947006 0.0932154357 0.0797918815
0.6259781386 0.1484667148 0.2129321502
0.5943190420 0.0960397976 0.1629531514
0.8032868391 0.0995531704 0.1736966862
0.7957198649 0.0993701762 0.1736861362
0.8511853396 0.1854330153 -0.0101880288
0.6190173851 0.1605671054 0.1870700163
0.8987206594 0.1315396866 0.0484221776
0.6376769952 0.1232512868 0.2006079638
0.6239023348 0.1580076741 0.2115883615
0.7732775890 0.1199604436 0.1887457158
0.5824338712 0.1001078188 0.1730869401
0.8227493656 0.0607120516 -0.0254867598
0.7857445187 0.1006401027 0.1718603294
0.8257842611 0.1143490510 0.1552454755
0.9075148830 0.1223041159 0.0745435312
0.8378937472 0.1167253851 0.1136615824
0.9005322628 0.1305156643 0.0746242973
0.6105521800 0.0920411000 0.1972234106
0.8621552161 0.1284633045 0.0407165992
0.8445217079 0.0563552339 -0.0256137094
0.7468136073 0.1102987128 0.2385946226
0.7901730546 0.1079061428 0.1929202562
0.7652597465 0.1173198647 0.2187155046
0.8053834457 0.0697024075 -0.0253988326
0.7800184164 0.1050829519 0.2038642445
0.6417846579 0.0816853974 0.2234120260
0.7658341745 0.1147352345 0.1931847788
0.8978251192 0.1363123233 -0.0260636632
0.6045353481 0.1613419619 0.1812377228
0.8648698515 0.0975138619 0.0273411874
0.9109712744 0.1279866121 -0.0047438596
0.6589968939 0.1344238392 0.2397140956
0.6562222379 0.0822198686 0.2145216391
0.8735939364 0.1347733993 0.0541057691
0.8879042656 0.0997346379 -0.0259454181
0.8872071954 0.1711935028 -0.0154677206
0.8415098456 0.1857182007 -0.0154345936
0.9066495689 0.1062754435 0.0530381736
0.6167979315 0.0781124036 0.2020258315
0.8566786279 0.1847038009 -0.0115954642
0.8521808814 0.1367986149 -0.0257877572
0.6082285466 0.0440028764 0.1931168875
0.7412832923 0.1129500286 0.2442693334
0.7099122801 0.0982634707 0.2466886613
0.8683965996 0.0436442308 -0.0149959686
0.5721400538 0.0852200353 0.1436790000
0.7511076214 0.0969358898 0.2336105242
0.5864974517 0.0657942130 0.1751575874
0.8621033087 0.1028864161 0.1086707055
0.6060065287 0.1437297452 0.1955359340
0.7089614402 0.0959363313 0.2475582366
0.7839846956 0.1325546728 -0.0253689374
0.8697628172 0.1371320939 -0.0258941872
0.7977586364 0.1680436977 -0.0209422404
0.7972456880 0.1719362496 -0.0112446678
0.7967010259 0.1135511196 -0.0040312745
0.8253089082 0.0664107563 -0.0255125581
0.8723872090 0.1344519061 0.0698170386
0.8941979806 0.1620875825 -0.0047212943
0.8393421954 0.1674428266 -0.0257575008
0.9103200111 0.1380154045 -0.0199822188
0.8301353991 0.1421945920 -0.0042708382
0.8897035567 0.1475378427 -0.0260320739
0.8355621359 0.1361475632 -0.0042894257
0.8628494745 0.1059288908 0.0747529384
0.7761686480 0.1122021660 -0.0039092070
0.7129536272 0.1167830083 0.2640723918
0.8899749216 0.0941338934 0.0397306123
0.7941998447 0.0990781776 0.1845849128
0.8931157983 0.1251112270 0.1054144268
0.6073166986 0.0408337475 0.1921505325
0.9173161842 0.1217640279 -0.0069546986
0.8554136334 0.0520309066 -0.0256713822
0.7860810573 0.1035348913 0.1712993600
0.5791317700 0.1397958497 0.1563663335
0.6306719032 0.0474616373 0.2126312014
0.7201105737 0.0953524527 0.2584054731
0.8554054229 0.1021449373 0.1220978143
0.6336029515 0.1528596498 0.2195521952
0.7774637149 0.0984705373 0.1958710986
0.6718597434 0.1130597958 0.2491046687
0.9146470798 0.1105911896 -0.0047476558
0.8505563077 0.1814349440 -0.0220542118
0.7744642653 0.1446599674 -0.0168049118
0.7210996586 0.1173700114 0.2565207854
0.8473090268 0.1234233365 -0.0257383945
0.6230828789 0.1433429882 0.2102453173
0.6220952312 0.0717662259 0.2063142152
0.6926448676 0.1012392032 0.2612621825
0.7878964374 0.1008342480 0.1956809751
0.5817974768 0.1250081725 0.1736349805
0.9075815770 0.1216994440 0.0520946474
0.6000913050 0.0646307279 0.1869500169
0.8366434139 0.0772007148 -0.0255996206
0.6577882348 0.0716886534 0.2361865389
0.8744266601 0.1299974159 0.0977069055
0.7926076852 0.0557448094 -0.0067169997
0.8650674384 0.0973785362 0.0258317164
0.8002923076 0.0553852832 -0.0039810381
0.8748503317 0.0679632074 -0.0258176866
0.8755974025 0.0492245793 -0.0195139333
0.8845162581 0.1658084405 -0.0046374991
0.6397209347 0.0950635788 0.2222523744
0.7695807728 0.1159874633 0.1889259726
0.6446125594 0.1117931665 0.2059891281
0.6115317917 0.1468022489 0.1796020562
0.6589767234 0.0795409262 0.2167340992
0.8755877047 0.0886133618 -0.0044453684
0.8861474572 0.1292640370 -0.0259812766
0.8118001879 0.0596932038 -0.0254220529
0.8366746226 0.1389899259 -0.0256976981
0.5717464294 0.0998898961 0.1636879216
0.7789260289 0.1537948642 -0.0134591454
0.6448697045 0.1180377925 0.2064702578
0.8074458109 0.1054975414 -0.0254689674
0.9113384914 0.1305824660 -0.0226049730
0.8096128705 0.1091656253 -0.0041000406
0.8479638674 0.0411739880 -0.0195178684
0.8929684102 0.1635034031 -0.0047278738
0.9068902154 0.1068574140 0.0320866007
0.9087144233 0.1145896917 0.0205700991
0.6338175176 0.1582143336 0.2199687457
0.8954829869 0.1412303901 -0.0046566864
0.7652585264 0.1105699325 -0.0051947361
0.7570926300 0.1177430950 0.2272439082
0.6129536658 0.1438615779 0.2015549896
0.6125220693 0.1473809895 0.1804534785
0.8379921169 0.1103172232 -0.0042646506
0.8985233172 0.0666814713 -0.0188785571
0.8628126660 0.0993345775 0.0869704441
0.9034797911 0.1241788759 -0.0260809135
0.6332032865 0.0976862783 0.1957322552
0.8526790192 0.1024040122 0.1132183659
0.7795413036 0.1390328206 -0.0253241117
0.8316315157 0.1190812051 0.1489039946
0.6551782142 0.0724698287 0.2340868370
0.6157815428 0.1416333527 0.1829352909
0.6544462284 0.0559611352 0.2328504879
0.8524033718 0.1853398248 -0.0076083759
0.8191095446 0.1012762827 -0.0255317982
0.5866156196 0.0838742449 0.1760345488
0.8234967189 0.0740842134 -0.0041381301
0.8867430867 0.0985061218 -0.0259365582
0.6635830878 0.1069034506 0.2217100624
0.9121553044 0.1401699180 -0.0135885640
0.8067218905 0.0488364689 -0.0040665697
0.9102961257 0.0804676872 -0.0113878893
0.8591618163 0.0544639576 -0.0043120935
0.5698584554 0.1018125226 0.1429409028
0.5854958453 0.0549679320 0.1598936113
0.8741577592 0.1004103582 0.0968577046
0.9064192490 0.1059426046 0.0460078985
0.8973437539 0.1322809140 0.0214582322
0.8848963780 0.0931932907 0.0172183911
0.5890073801 0.0574535752 0.1770057346
0.7700419186 0.1368767190 -0.0049984276
0.7700543640 0.1285409260 -0.0195036471
0.8179328345 0.0759981151 -0.0041071814
0.8753127538 0.1784044752 -0.0148150727
0.9073793414 0.1079871041 0.0347435340
0.9021293314 0.1293701435 0.0848963751
0.5721374316 0.1370290754 0.1656695589
0.8168348974 0.1431863523 -0.0255830459
0.6221557900 0.0440146154 0.2051655567
0.7398431393 0.0963718797 0.2421027969
0.6221636334 0.0915148348 0.2072241441
0.8610224863 0.1215733609 0.0479803384
0.6742204929 0.0899962147 0.2500552911
0.6581455092 0.1250814700 0.2179494247
0.8305554021 0.1062479973 0.1224231836
0.5801785780 0.1184165920 0.1719236614
0.6607909050 0.1202949890 0.2199520469
0.8875888778 0.0936598540 0.0842737087
0.5970301072 0.0742437056 0.1643458237
0.6442665303 0.1251095720 0.2272725741
0.8854385615 0.1223743989 0.0988199523
0.6955804193 0.1162690754 0.2539916123
0.7081342166 0.1120209682 0.2465760590
0.8822795342 0.1034585274 0.0996849627
0.8041197882 0.0598536376 -0.0253748476
0.7628299048 0.1111970076 0.1967634140
0.6480941833 0.1467605394 0.2103757903
0.6772860953 0.0769963771 0.2357769527
0.8830018788 0.0611442517 -0.0258383307
0.7247493213 0.0988040037 0.2389289500
0.8856288085 0.1356728698 0.0598275602
0.8458123993 0.1163745059 0.1047850751
0.7940453597 0.1160660713 -0.0040193159
0.8552926278 0.0795059654 -0.0043203510
0.8931080522 0.1518073810 -0.0260546381
0.8574495755 0.0449685564 -0.0228820910
0.6241243617 0.0998715548 0.1881919983
0.5730750931 0.0973256429 0.1451970444
0.6323648961 0.0680640812 0.1937751640
0.8144778039 0.0756960525 -0.0040817115
0.6155732178 0.0805144089 0.2010713212
0.9066734159 0.1422979627 -0.0047366582
0.6144434622 0.0393465461 0.1983292051
0.5707854041 0.1321650690 0.1571497548
0.8961552621 0.0641663571 -0.0191532178
0.7621710103 0.1070033199 0.2226550381
0.8102076882 0.0678634261 -0.0254250074
0.8734138264 0.1756727130 -0.0045886513
0.5941402969 0.1451762665 0.1853082872
0.6521959677 0.1100184386 0.2331645692
0.7746171928 0.1198276128 0.1979545827
0.5963963383 0.0668320683 0.1838350276
0.7850893160 0.1125888704 0.1980366475
0.9123318790 0.0857996298 -0.0159161718
0.5842348301 0.0502549439 0.1704407710
0.6536795012 0.0511258192 0.2131266520
0.6706487687 0.0991920744 0.2475985638
0.5925779334 0.0698617571 0.1806397264
0.6233205265 0.1554886353 0.1898841744
0.8978196459 0.1142512607 0.1071639294
0.8740658037 0.1755163442 -0.0209883270
0.6355137706 0.1106778929 0.2193885628
0.5866008297 0.1067658433 0.1567812853
0.6314327475 0.1623859890 0.2134147379
0.5900314936 0.0551865622 0.1604024972
0.9161491017 0.0970141309 -0.0049296205
0.8740167109 0.1510915889 -0.0045453367
0.7012384536 0.1001328108 0.2470895852
0.8017200603 0.0721002225 -0.0039995577
0.9017773662 0.1296797353 0.0669074015
0.8837986852 0.0554682182 -0.0212042755
0.7057382087 0.0946076365 0.2571800611
0.8612764211 0.1190554579 0.1183687390
0.6695628693 0.0638695308 0.2271039406
0.9011294892 0.0880561457 -0.0260007498
0.6551604974 0.0498876958 0.2219245124
0.8316339527 0.1848894453 -0.0156957899
0.6243488026 0.0374447879 0.1972095031
0.7954417246 0.1157997160 -0.0040272059
0.8083505147 0.0532790247 -0.0040130280
0.6591809723 0.1353277223 0.2192671438
0.6250570723 0.1126651771 0.1895143838
0.7877446493 0.1224535966 -0.0253773470
0.6598742101 0.1280587833 0.2401431189
0.8231736173 0.0637272230 -0.0041134468
0.8036198577 0.0997829593 -0.0040506174
0.6613108667 0.1053323410 0.2197634786
0.8825450194 0.1481072534 -0.0259902258
0.6371230545 0.0842065472 0.1984811496
0.7278009287 0.0957615795 0.2395506379
0.7370561959 0.1179673752 0.2348262179
0.8166580540 0.0596616376 -0.0254485379
0.5832213296 0.0845426176 0.1730958339
0.6177229734 0.0683211252 0.1814963072
0.8058735441 0.1050719150 0.1765364312
0.7671493269 0.1101889780 -0.0184307295
0.7592375351 0.0975552990 0.2132733496
0.8591019597 0.1094291676 0.0171458179
0.6308371538 0.1636530342 0.2043960036
0.6717886665 0.0747616660 0.2273031337
0.6759411583 0.1230243082 0.2335959965
0.7087810227 0.0947796899 0.2621248826
0.7671744197 0.1142270427 0.2169344538
0.9033020546 0.1014304334 0.0776627879
0.7786441513 0.1061596236 0.2052716883
0.8828905530 0.0928747986 0.0179181785
0.5930945202 0.0456357284 0.1721594529
0.8633901199 0.0858950101 -0.0257745692
0.7341016495 0.1023876162 0.2289170844
0.8650492919 0.0644234050 -0.0043609074
0.8907153658 0.1446351232 -0.0046353365
0.9162415408 0.0962821603 -0.0085285550
0.5791625961 0.0751389968 0.1490473733
0.8620142739 0.0411240535 -0.0071139119
0.5958289113 0.0696412558 0.1834608384
0.6558816610 0.0653776427 0.2343853299
0.8409240829 0.0416677954 -0.0205965363
0.9027085580 0.0982695357 -0.0260344253
0.9075885299 0.1481177722 -0.0173029180
0.7650336208 0.1080596552 -0.0097626397
0.7481150522 0.1112928326 0.2371524442
0.8953613512 0.0603959312 -0.0063880662
0.5906833537 0.1243403416 0.1813645187
0.8018885079 0.1293094527 -0.0254725469
0.6374984744 0.1288710756 0.2006931535
0.8950859602 0.1335722471 0.0909261560
0.7488521062 0.1082114685 0.2365653186
0.8307110503 0.1197561678 -0.0256318436
0.6236771420 0.0935056627 0.1875471836
0.6634637343 0.0746329073 0.2203012621
0.7425719919 0.1086651019 0.2431921835
0.8784557336 0.1277344385 -0.0259320658
0.8356165925 0.1626508621 -0.0257269490
0.7993555267 0.1570033568 -0.0254997138
0.8609072501 0.1573816621 -0.0044805556
0.5758276766 0.0727765458 0.1487187389
0.8262290561 0.0847528732 -0.0255482945
0.6574964155 0.0850481304 0.2157187859
0.7710611114 0.1043518296 0.1879504555
0.6607456722 0.1249728278 0.2407112625
0.9121601719 0.0894701519 -0.0185221040
0.6393992920 0.0414113082 0.2123116702
0.8329128095 0.1337158471 -0.0042714421
0.6605525831 0.0739064771 0.2385143307
0.6394832976 0.1121558939 0.2227660260
0.6715492408 0.1269352292 0.2493048688
0.6513012679 0.1070760454 0.2114183784
0.6114649505 0.0446575004 0.1959693826
0.8649217987 0.0489053268 -0.0255182632
0.9119903847 0.1115873070 -0.0047249216
0.6860098937 0.0974468999 0.2423477588
0.7969991692 0.1091369032 0.1588202582
0.6879507095 0.0915941534 0.2456962567
0.8773155582 0.0669864360 -0.0258320962
0.8662070938 0.1313968511 0.0890593577
0.8648971186 0.1026318730 0.0944147707
0.9044867838 0.1032279212 0.0134312507
0.9038542928 0.0913373245 -0.0046310158
0.6325583063 0.0803066267 0.1944559431
0.7896872335 0.1065414021 -0.0039791850
0.8558324283 0.1722995240 -0.0044769827
0.7621691245 0.1101766075 0.1975664722
0.9089508348 0.1125268797 0.1084598543
0.8172898852 0.1401485867 -0.0255807513
0.8407761875 0.0777564618 -0.0256257228
0.8640679876 0.1301175131 0.0263615355
0.8815174633 0.1535184333 -0.0259934806
0.6376219114 0.0430504761 0.1985983186
0.6656395817 0.0790857839 0.2222734721
0.5871417134 0.1353092198 0.1787712544
0.8462342406 0.1654564022 -0.0044082011
0.8510648764 0.1721083466 -0.0044484840
0.8890326311 0.1352236297 0.0455277341
0.9061032176 0.1052969642 0.0618065140
0.8386846288 0.0417874446 -0.0205331145
0.8772834564 0.1111209356 -0.0258984892
0.8033714058 0.1405881189 -0.0254990481
0.7326185159 0.1093937316 0.2301012961
0.8970690470 0.1325904555 0.0558786057
0.8909643441 0.1169334555 0.1043908116
0.5852161614 0.0628167365 0.1739086969
0.8980584224 0.0974462712 0.0343219794
0.8913499753 0.0875104733 -0.0045472418
0.8756654297 0.1350999682 0.0019689979
0.5778027791 0.1416769721 0.1602583770
0.8644231286 0.0978095249 0.0237009953
0.6035043794 0.0631244546 0.1898476916
0.5980840419 0.0927836335 0.1660337613
0.7891518703 0.1085495653 0.1939634504
0.8314716139 0.1155318256 0.1208697549
0.8492655717 0.1566802860 -0.0044105751
0.8088538458 0.1296703695 -0.0041286690
0.6492638525 0.1450916054 0.2322291145
0.6310474132 0.1489907617 0.2172424731
0.6543016364 0.0488054505 0.2156205610
0.9131979349 0.0964208503 -0.0203784562
0.7953888796 0.1642749730 -0.0041191803
0.8299600984 0.1159351657 -0.0042279540
0.7840725790 0.1193740193 0.1726222416
0.7333457414 0.1029192934 0.2530174875
0.7200416454 0.1112916639 0.2628744051
0.5749083204 0.1320267275 0.1520173068
0.8024834051 0.1437764879 -0.0041151317
0.7851695267 0.1170601568 -0.0253524038
0.5805627739 0.1094209291 0.1517110510
0.8744807143 0.1219990210 -0.0258989035
0.8509937990 0.0866554990 -0.0257015977
0.6064542829 0.0863476641 0.1934132796
0.5700763113 0.1088633248 0.1438562195
0.8652088271 0.1309558084 0.0347266636
0.8875669356 0.1354632301 0.0482054747
0.8317561294 0.1669773306 -0.0257095742
0.7800675823 0.1187620675 -0.0253244035
0.9052162875 0.1256846740 0.0519847310
0.6035429510 0.1512036921 0.1937257578
0.8005343582 0.0502854447 -0.0121888815
0.5831167143 0.0561016331 0.1717961688
0.8598275454 0.1173465165 0.0194000236
0.5937002595 0.1003451612 0.1626075368
0.8726306583 0.0939129031 0.0055726805
0.7049200422 0.0945531403 0.2535248199
0.8588263149 0.1242944706 0.0959575339
0.5860212555 0.1143678395 0.1566183740
0.6518944888 0.1513206386 0.2314658188
0.6764504356 0.1277003501 0.2354658221
0.8183620047 0.0837038296 -0.0041351069
0.6003684903 0.0490039263 0.1676647056
0.8850644262 0.1417251173 -0.0045938238
0.9147149749 0.1067726522 -0.0204924212
0.6416533203 0.0749907285 0.2019255733
0.9152033499 0.1225309631 -0.0190229324
0.6694815018 0.1239007451 0.2272986349
0.6386028996 0.0955020781 0.2002139695
0.8719358575 0.1342337901 0.0640991626
0.8641081819 0.0855433706 -0.0043811037
0.9107224282 0.0878671003 -0.0046883448
0.7733343219 0.0827017880 -0.0173029898
0.8597333285 0.1840107152 -0.0131999334
0.8305623826 0.0894244143 -0.0041918802
0.6606875398 0.0768830574 0.2180646512
0.7223866233 0.0963891379 0.2613707220
0.6604111246 0.0575718012 0.2184493664
0.8200837683 0.1760499930 -0.0254789054
0.5887979185 0.1510534638 0.1651846716
0.8773194334 0.1210877765 -0.0259144417
0.6203053609 0.1140427176 0.2065966749
0.8247866325 0.0408468552 -0.0042217906
0.9174248374 0.1036476306 -0.0117388599
0.8612535477 0.1166660799 0.0481243384
0.5828968436 0.0978180852 0.1733912750
0.8622176596 0.0936012601 -0.0257813264
0.7057592025 0.0945943963 0.2512503236
0.6620780825 0.1298235510 0.2419866484
0.5936135038 0.1554637835 0.1708258722
0.6411393438 0.1597372349 0.2177819360
0.7313289029 0.1133247108 0.2543872005
0.8927087887 0.0973551135 0.1045532088
0.8836474559 0.0929948708 0.0142954156
0.7870405204 0.0609947065 -0.0106764981
0.8916907360 0.1010513995 0.1042851006
0.8408832175 0.0571695914 -0.0042068980
0.6212983150 0.1535452352 0.1880890241
0.6427477080 0.0482238537 0.2017130934
0.7949093571 0.0717773703 -0.0253363882
0.6169543612 0.1641196886 0.1860685708
0.8526129899 0.1051613381 -0.0043295241
0.8104789215 0.1488734605 -0.0041728302
0.6756620775 0.0899741670 0.2309815910
0.8757176785 0.1344600787 -0.0259265286
0.7270051893 0.1136545709 0.2357445232
0.8521342559 0.1105584957 0.0979865066
0.7662275526 0.1012828251 -0.0079215901
0.5940204763 0.1125977683 0.1837505570
0.8621603537 0.1001872158 0.0475313863
0.6025081719 0.1604021571 0.1784554647
0.7659307502 0.1204923483 -0.0056837498
0.8960879707 0.1331815696 0.1024737752
0.8655967673 0.1358582745 -0.0044436124
0.8767072367 0.1352887482 0.0250410342
0.6075582751 0.1295315412 0.1962580213
0.8977372659 0.0866202280 -0.0045856957
0.8387584575 0.1232159864 0.1133180044
0.8617315521 0.1099533981 0.0523229358
0.8785371484 0.1355788527 0.0137856379
0.6765499075 0.0798743303 0.2437835962
0.8292458880 0.1010955846 0.1337846701
0.6564139248 0.1407647945 0.2379117578
0.7784892554 0.1278270027 -0.0253300185
0.9006242397 0.1385172566 -0.0260828678
0.8436515947 0.1163605986 0.1072141487
0.9059361549 0.0946287536 -0.0260415903
0.8920308066 0.0947813963 0.0020402162
0.8194047256 0.1037805025 0.1346778752
0.6670925431 0.0646393717 0.2378382135
0.8412018445 0.1006145518 -0.0256658681
0.7975020672 0.1211674418 0.1655553704
0.7853044876 0.0697792169 -0.0229496077
0.7169165821 0.1086832531 0.2426013722
0.5867563790 0.0481275359 0.1723381507
0.6546068004 0.1220013441 0.2148410882
0.6329536098 0.1614845465 0.2171505686
0.8607230970 0.1239919568 0.1038939164
0.7441666380 0.0981053717 0.2184094819
0.7656823403 0.1129317316 -0.0149573035
0.8625473612 0.1016197061 0.0714441974
0.7716053882 0.1344782401 -0.0189340754
0.6261383035 0.0561120710 0.2091189227
0.6826999294 0.0870864449 0.2479901056
0.6006956720 0.0613138105 0.1873333650
0.8487159394 0.1469680655 -0.0043872902
0.5741795291 0.0822865886 0.1650569132
0.8033490082 0.0485352758 -0.0062029866
0.8977664676 0.1018018228 -0.0260100668
0.7377477067 0.0974342173 0.2485255929
0.8875041673 0.0936460132 0.0522724439
0.8611919925 0.1247842617 0.0625134698
0.6260200009 0.0812831004 0.1890058799
0.8736469994 0.1578846122 -0.0045571845
0.8484533243 0.0387125308 -0.0057677172
0.8140657021 0.1211934662 0.1669492343
0.8544714735 0.1026017863 0.1109122952
0.8687672531 0.1508662701 -0.0045134102
0.8269115770 0.0453820038 -0.0243316940
0.8368226016 0.1231376035 0.1330832161
0.8666115059 0.1333315551 -0.0258699788
0.5696102993 0.0912520723 0.1614258317
0.6604640479 0.0557571426 0.2290090856
0.6337797609 0.1034688254 0.1964624975
0.5659375221 0.0799798953 0.1576795485
0.9022734715 0.0828584867 -0.0046090547
0.5889048804 0.0748111652 0.1574154124
0.8661709796 0.0491253864 -0.0043441962
0.6020291036 0.1567696747 0.1743728158
0.5731948808 0.1330129446 0.1551131275
0.8625834894 0.1085595188 0.0851772534
0.6294870718 0.1078007689 0.2141819805
0.7895049295 0.1554387578 -0.0253574951
0.8590090893 0.1229180159 0.0177023167
0.6379165132 0.0558132165 0.1979313336
0.8937500127 0.0744695010 -0.0259384037
0.8566646387 0.1398369200 -0.0044232636
0.8620862711 0.1279612979 0.0843162692
0.5869559158 0.1170500879 0.1777882838
0.8117802823 0.1215862364 0.1422232785
0.8327554475 0.1013844085 0.1340083123
0.7709073449 0.0927389092 -0.0198125648
0.8668663726 0.0707507998 -0.0043793743
0.8199500237 0.1293559729 -0.0047053209
0.5765333279 0.0985006777 0.1477075399
0.7764404589 0.0918347503 -0.0038829310
0.6199257219 0.0998269558 0.1846587124
0.9132612630 0.0935771515 -0.0047366455
0.7877224029 0.0603309675 -0.0095754325
0.7715395815 0.1196473212 0.2113519331
0.7686823818 0.1197391282 0.1938046096
0.8476629625 0.1763440196 -0.0258157210
0.8616711160 0.1276658446 0.0798563302
0.8970769860 0.1424184180 -0.0260642095
0.6152493723 0.1241051872 0.1817678367
0.8886903397 0.1352013874 -0.0005568612
0.5935673674 0.0872574349 0.1619310901
0.8674459526 0.1314597713 0.0950110217
0.8421583300 0.0421185811 -0.0214519220
0.7881601599 0.1057474050 0.1688661334
0.6469469897 0.1488762144 0.2094809183
0.7164589372 0.0951664109 0.2598905986
0.6869350517 0.0896483899 0.2463716725
0.8238375153 0.1184946735 -0.0255880150
0.8395999115 0.1484305016 -0.0257297672
0.8337039229 0.1012028374 0.1368299618
0.8356579383 0.1334174928 -0.0256834854
0.7858833812 0.0729976842 -0.0251950352
0.6127111498 0.1136030150 0.2000309968
0.7386761196 0.1116449447 0.2470881932
0.7689642303 0.1275560486 -0.0183563698
0.7684872687 0.0979679565 0.1914371740
0.9175067005 0.1050173309 -0.0066221812
0.7125550890 0.0975252743 0.2648721583
0.6815316148 0.0868777542 0.2535033562
0.8418597835 0.1707057160 -0.0257774984
0.8965556994 0.1509290833 -0.0260443368
0.7207379672 0.1135476692 0.2622846448
0.8087059407 0.1078043117 0.1734179219
0.6630587476 0.1102708815 0.2214141655
0.8278596557 0.1227298052 0.1282355669
0.9092085431 0.1037811450 -0.0260492915
0.5815948952 0.1457800351 0.1628729901
0.6726377504 0.0680578120 0.2283123605
0.8895105921 0.1351245111 0.0399352037
0.8794493270 0.1109051047 0.0999221946
0.8292718372 0.1076109435 -0.0042115060
0.8042697198 0.1214235391 0.1598404865
0.8005425675 0.1559693914 -0.0041251627
0.8866387396 0.0934909212 0.0390906158
0.9035600580 0.1019456612 0.0131253983
0.5896617015 0.1047427231 0.1796084777
0.8486954988 0.1856116801 -0.0108410753
0.6316394185 0.1145500528 0.2162914668
0.5716357520 0.0897948045 0.1631438815
0.8293510923 0.1226309587 0.1312534652
0.8103660593 0.1618079059 -0.0255717167
0.8398638184 0.1013613393 0.1376336641
0.8765857476 0.1352591088 0.0152199510
0.7006158298 0.0943140686 0.2555400978
0.8508800392 0.1831186922 -0.0193811972
0.6535945305 0.1143433794 0.2136620175
0.8631326644 0.1149701610 0.0747993753
0.6244284136 0.1626195153 0.2122878677
0.7979260431 0.1724705048 -0.0068319555
0.9015139005 0.1296594732 0.0375467894
0.6521241088 0.0860153744 0.2321254713
0.8745044194 0.0957226041 -0.0258582752
0.7686595970 0.0978181054 0.2134446313
0.6220035153 0.0850101683 0.2068057286
0.6356556175 0.0467168557 0.2168103186
0.7983273845 0.0759250251 -0.0253656165
0.6290744737 0.1572806486 0.2159326969
0.6691934216 0.1068850762 0.2263191106
0.7782426080 0.1459653335 -0.0039962965
0.8910045562 0.1048253991 0.1041358365
0.7869862677 0.1426900197 -0.0254007782
0.8135311509 0.1250283674 -0.0041512254
0.6778429731 0.0794143388 0.2389316384
0.6774579699 0.0988652335 0.2328222541
0.5868920212 0.0936173431 0.1767001424
0.6030949484 0.0689308877 0.1897420377
0.8734746019 0.0937200607 0.0087062203
0.8704214629 0.1804878230 -0.0140974344
0.8126091522 0.0563015196 -0.0040409520
0.8958684742 0.0963309844 0.0721274328
0.8709464683 0.0868666249 -0.0044211783
0.9067883529 0.1226598928 0.0078303698
0.6142011870 0.0874948639 0.2001878478
0.6617574548 0.0846635288 0.2399006068
0.6107166961 0.1595057531 0.1805004558
0.8771827943 0.0932824182 0.0812141275
0.8618798750 0.1010994167 0.0410703603
0.8374223380 0.1012493652 0.1208697638
0.8612497609 0.1662261348 -0.0044989498
0.8108318979 0.0450116058 -0.0159364309
0.7422461906 0.1087150480 0.2190002892
0.6444958338 0.1341379904 0.2278375115
0.6478644631 0.0873177611 0.2286764133
0.9019910958 0.1004645161 0.0330140136
0.7836023280 0.1558381214 -0.0191685550
0.6408089050 0.1165664300 0.2029774737
0.5990106010 0.0964465622 0.1669787369
0.6868381994 0.0959679205 0.2434518352
0.8138279656 0.1171201639 0.1674989112
0.7762800315 0.1471701996 -0.0172908115
0.7906047609 0.1666859275 -0.0054844416
0.7948885658 0.0861345503 -0.0253618269
0.8369442781 0.1256924335 -0.0042814672
0.7519180518 0.1187177939 0.2216527790
0.7002061676 0.0990276269 0.2473218000
0.8332258543 0.0623422050 -0.0255532151
0.8403778682 0.1448117994 -0.0257290504
0.8106658996 0.0489940765 -0.0040225993
0.5946092348 0.1494300015 0.1663463646
0.8884688991 0.0938067242 0.0373531428
0.8822741112 0.1358156486 0.0282293331
0.8883332556 0.0612232634 -0.0241968325
0.8613171799 0.1274402875 0.0586496330
0.9110042734 0.1428655257 -0.0116331587
0.5822802387 0.1032713499 0.1730914744
0.8612236945 0.1258595755 0.0670562314
0.6726378604 0.1193329746 0.2297003877
0.6422810112 0.0534899048 0.2015480336
0.8378162696 0.1062142866 0.1143722627
0.6247677369 0.1382268787 0.1903470460
0.8656072867 0.1242846207 0.0752234851
0.7775564454 0.1028979875 -0.0252851513
0.8501339193 0.1411697214 -0.0043851036
0.6818639141 0.0865418708 0.2449735413
0.8958615690 0.0693025689 -0.0248471992
0.9028250544 0.1010877120 0.0430627644
0.5940743654 0.0832438685 0.1825186449
0.8344793883 0.1212521917 0.1458153864
0.8595545462 0.1211966612 0.0190421327
0.6669629732 0.1209351778 0.2455261354
0.8743404119 0.0979093903 -0.0258605844
0.8386531445 0.0968555663 -0.0042461647
0.7588027468 0.1022433573 0.2018361571
0.8131304502 0.1219033043 0.1510072013
0.8805654494 0.0602173938 -0.0258318941
0.6175880315 0.0857850814 0.1821145928
0.6952775174 0.1062632211 0.2460761076
0.8304001471 0.1851944546 -0.0052201157
0.6205554856 0.0678908424 0.2048234695
0.8139099507 0.0569527675 -0.0040492812
0.8905415337 0.1350929758 0.0930386156
0.8693818624 0.0448287998 -0.0044696251
0.7219562534 0.0954586886 0.2546854219
0.8392593873 0.0933491761 -0.0042436596
0.5908177166 0.1572449855 0.1791955238
0.8470654936 0.1402067689 -0.0043648214
0.7547648579 0.0971361185 0.2242978230
0.8637299208 0.1126757699 0.0748142096
0.5991563208 0.1261348488 0.1888107781
0.9023114459 0.1255765594 0.1092539764
0.7946415938 0.1061379124 -0.0040074037
0.5884469916 0.1540241452 0.1725889707
0.8302136443 0.1201684149 -0.0042358179
0.8674326615 0.0979126952 -0.0258196257
0.6325732674 0.0482829457 0.2142720831
0.9024686755 0.0683235693 -0.0065905036
0.8131188682 0.1568905998 -0.0042011297
0.6160400583 0.0509921959 0.2002043174
0.8223981226 0.1148183569 0.1587370060
0.9162757219 0.1276286842 -0.0142899082
0.9015779760 0.1550520041 -0.0047974523
0.8022590754 0.0994687497 -0.0040420804
0.6219997287 0.0852484848 0.1857900536
0.8017234990 0.1047211906 0.1809083261
0.6614760633 0.1362402666 0.2212292411
0.8566186305 0.1417750664 -0.0258216499
0.8678649912 0.1324460900 0.0155421596
0.6645019677 0.0898818210 0.2217616507
0.9174332765 0.1046514604 -0.0143806716
0.8248765088 0.1097765636 0.1564411103
0.8080968244 0.1186934650 0.1461343943
0.8572070661 0.1829229535 -0.0183141268
0.8585227029 0.0595570946 -0.0257049935
0.5897505655 0.0840638205 0.1585174244
0.8637798114 0.1293636066 0.0874779406
0.7827534705 0.0685611147 -0.0183558311
0.5746232142 0.0717902563 0.1649935744
0.6232297910 0.1578468702 0.1899492682
0.8604833728 0.1210201804 0.0278395172
0.6549966748 0.1507032001 0.2290090080
0.8772431822 0.1291054906 -0.0259270251
0.5658434074 0.0818309878 0.1526386759
0.8766761844 0.0591212883 -0.0258123366
0.7524251785 0.1189508255 0.2093977407
0.7679394951 0.0981367503 -0.0169780936
0.6210841160 0.1649174020 0.1932050425
0.7870965472 0.1313699596 -0.0253860428
0.8607953585 0.1047053905 0.0200322641
0.7132217538 0.1117104097 0.2447787862
0.8898430597 0.1350071187 0.0263399041
0.7999339369 0.0995174490 0.1666675820
0.6490211756 0.1564309990 0.2172748160
0.5718393977 0.0655473589 0.1595271201
0.6126045158 0.1502395815 0.1806528694
0.8299779325 0.1739087423 -0.0257127317
0.8724962517 0.0549684700 -0.0257658739
0.8024470589 0.1519685234 -0.0255104562
0.8599577822 0.1021341269 0.0096840895
0.8881905337 0.1488650761 -0.0260255881
0.8270436731 0.1182519726 0.1255760512
0.7439750382 0.1003490631 0.2182331924
0.7635176270 0.0975416857 0.2206320118
0.7989092679 0.0512993198 -0.0059859412
0.6159219635 0.0878455604 0.1808103212
0.5672193228 0.0933722210 0.1594149157
0.6258424590 0.1205148486 0.1905063530
0.6179153051 0.0501948143 0.1809063828
0.6257104360 0.1549521106 0.2129878641
0.6702366437 0.0912627482 0.2469516976
0.6905378765 0.0942403612 0.2631436718
0.9062021087 0.1512754975 -0.0156731444
0.6404984543 0.0652616148 0.2216577602
0.5989613583 0.0560459110 0.1652767611
0.7691482316 0.1057000423 0.1900056378
0.7651515718 0.1115052519 -0.0119530536
0.5861634416 0.1351945493 0.1577167961
0.5716602917 0.0982929182 0.1635419516
0.8965473293 0.0967538536 0.0037394743
0.7082278604 0.0947459871 0.2601697467
0.7420846352 0.0964949963 0.2423918438
0.5769192888 0.1102003791 0.1687025961
0.7298780129 0.1167155756 0.2328418645
0.6392910242 0.1611487942 0.2145362299
0.7357757811 0.1180959642 0.2287965459
0.6611946777 0.1077425539 0.2197664215
0.6497287994 0.0856256021 0.2091934889
0.8946514217 0.1336313339 0.0648965859
0.8510460193 0.1239303522 0.1266146560
0.8447859884 0.1036253318 0.1066917360
0.8616307853 0.0962264790 -0.0043157678
0.6213683751 0.1576153675 0.2093981794
0.7993247773 0.1635345408 -0.0041331029
0.5717854823 0.1356547388 0.1597956756
0.6898971884 0.1180910520 0.2553431465
0.6124969621 0.0385978733 0.1858848494
0.8719954057 0.0483613857 -0.0043974438
0.5675980889 0.0786536871 0.1591171717
0.9177479429 0.1081294673 -0.0096508121
0.8302703332 0.0853318299 -0.0255739656
0.7968203973 0.1663913305 -0.0041310031
0.7843312394 0.1604082673 -0.0112783811
0.8013591076 0.1734064444 -0.0173987138
0.8615376074 0.1125631249 0.0500219307
0.8378136594 0.1099269626 0.1430254545
0.8237897243 0.1789239503 -0.0235081318
0.8180736197 0.0901372435 -0.0255074941
0.5979435033 0.0688396217 0.1649006961
0.7649436425 0.1084899775 -0.0121315367
0.7892171177 0.1656016422 -0.0062140521
0.8818884227 0.0702018270 -0.0258664562
0.9060979371 0.0823372504 -0.0046387636
0.8217687636 0.1085121681 0.1318488600
0.8245977770 0.0401816674 -0.0099033963
0.8806467167 0.1121362914 -0.0259200567
0.5654964400 0.1244976532 0.1569019015
0.6229603614 0.1612701477 0.1907354303
0.6794222846 0.0972097102 0.2346338624
0.9035644412 0.1278867196 0.0718890227
0.8626167355 0.0999437851 0.0699324829
0.7978817692 0.1558388595 -0.0254880096
0.8327431760 0.1280200941 -0.0042623887
0.5868540412 0.0792160235 0.1558339701
0.7989761744 0.1495144496 -0.0041049078
0.6650374710 0.0771055204 0.2422413188
0.8649752547 0.1307664029 0.0162563452
0.8638506390 0.0980858999 -0.0018987600
0.7696938801 0.0876339300 -0.0065481133
0.8885371152 0.1395022674 -0.0260124867
0.8604770878 0.1268179434 0.0292253569
0.7931259777 0.1190856853 0.1625884144
0.8711713157 0.1749751914 -0.0045696672
0.6372687666 0.1217922685 0.2213227938
0.8738681669 0.1400080957 -0.0045194514
0.8323379297 0.1011041029 0.1293108761
0.8284582827 0.1554862059 -0.0042871715
0.8386403248 0.1196652859 0.1126608536
0.8629551372 0.1025693135 0.0990559486
0.9160372898 0.1293689748 -0.0075751592
0.7910505880 0.1065939905 0.1920630295
0.8044769477 0.1565630467 -0.0041490515
