1.0017668447 0.0162630606 0.1205929179
0.9693111595 0.0032901465 0.1196834638
0.9421556503 -0.0707662172 0.0858376697
0.9462569982 0.1074790210 -0.0316264704
0.8323246700 -0.1419418831 0.0136820235
0.7453755364 0.0070397837 0.0131193262
0.9091588877 0.0782286592 0.0855117642
1.0858235229 0.1348899307 0.0210490683
1.0838464849 0.1352231293 0.0576174096
1.0982747984 0.0065221937 -0.0440720694
1.0824930845 0.0864592042 -0.0440691511
0.8319165950 -0.0432908664 -0.0433407813
1.0791512107 0.1317600336 0.1128474471
1.0652547412 -0.0917767614 0.1228571493
0.9317862406 -0.1185287630 -0.0207118519
0.8374681525 0.0296410399 -0.0434212930
1.1145419049 0.0342088383 -0.0054021621
0.9426329358 0.1042166022 0.0453260199
0.9915809539 -0.1170905448 0.0039116904
0.8504181539 0.0237315743 -0.0434223763
1.0941964166 -0.0453360689 -0.0445734507
0.8285390738 -0.0402337696 -0.0433437025
1.1007057418 0.0963525200 0.0060613873
0.8567243888 0.0482162095 -0.0333531362
1.1362998722 -0.0697904157 0.0067395085
0.8646768500 0.0653930875 0.0597008515
1.0762327677 0.1341955261 0.0782292503
0.9128048024 -0.1233633224 -0.0052605617
0.9267191975 0.0033930238 0.1288221640
0.9472234486 -0.0938808606 0.0155184361
0.9303683243 -0.0835178371 -0.0331724842
0.7769569783 -0.1191969430 -0.0238401970
0.9340455707 -0.0343470119 0.0174348526
1.0430923962 -0.0587963737 -0.0449867637
1.1167113252 -0.0877553741 0.0738215032
0.8875243229 -0.0298829208 0.1153092506
0.8311968323 -0.1275915030 -0.0334167650
0.7746969975 -0.1090003590 0.0345150607
0.8478585485 -0.0143531370 -0.0332020897
1.0429056497 -0.0155186480 0.1203472780
0.8535504577 0.0755019900 -0.0156353919
0.9255049040 0.0039755071 0.0482432599
1.1233704414 -0.0658929753 0.1253910358
0.9215673063 0.0220870843 0.0542263966
1.0329751277 -0.1059455571 0.0911102631
1.0983027844 0.1040869329 0.0235304775
0.9632786916 -0.0081763792 -0.0450186147
1.0902427467 0.1318821608 0.0083035843
0.8872947391 -0.0131432758 0.0508723313
0.7809987017 0.0612231169 0.0269899032
0.7795801059 0.0060281698 -0.0332108504
0.8962717949 -0.0517861125 0.0454169478
0.8273963585 0.0535931829 -0.0335447343
1.0140676262 0.1226235018 -0.0243683528
0.8714211646 0.0587484862 0.0969319123
0.9382394208 0.1056864457 -0.0320291282
0.8464812014 -0.0674902193 -0.0331509645
0.9466352901 -0.0909423334 0.1115957307
0.7523608393 -0.0279218424 -0.0369793991
1.0231043129 0.1224384400 0.0959488853
1.0350443111 0.1239315485 0.1100707943
0.9498968022 -0.0203884733 0.1195248388
1.0026346159 -0.0851843198 0.1188809230
0.8097258861 0.0671427469 0.0156719118
1.0487148497 -0.0582103042 0.1192919646
1.1200228075 0.0026409805 0.0332008856
0.8553546169 0.0771892108 0.0144155612
0.8314324518 0.0639011268 -0.0428596996
0.9201043937 -0.1257516718 -0.0118131635
0.9093810136 0.0556552874 0.0415660140
1.1080656025 0.0213764330 -0.0435772984
0.7868904783 -0.0534184569 -0.0432658897
1.0330175574 0.1177805946 -0.0441699323
0.8728725868 -0.0255549362 0.0938225954
0.8987942703 0.0498874296 0.0415922185
1.0873078234 -0.0259099494 -0.0446960002
0.8985625576 0.0040202552 -0.0332350592
0.7422317743 0.0158399828 -0.0256568862
0.8392740858 0.0223035662 -0.0434152249
0.7686242557 0.0610807584 -0.0288375585
0.8830284700 0.0864080818 0.0869705548
0.9399686390 -0.0611797374 -0.0128312509
0.7897687865 0.0261855763 -0.0332539268
0.7655939238 -0.0863132552 0.0042743573
1.1346665132 -0.0818640835 0.0139804099
1.1352419033 -0.0633772644 0.0672709603
0.7629455264 -0.0560237721 0.0058711831
1.0057392960 0.0285164235 -0.0450794233
0.9000736058 -0.0948517099 0.0593570199
0.7618159401 -0.0508306579 0.0364358290
0.7718709627 0.0615181416 -0.0355303608
0.7575569426 0.0050519453 -0.0331958786
1.0286315155 -0.1034127711 -0.0422246859
1.0866580702 -0.0884966982 -0.0439074403
1.0946495035 0.1130481297 0.0961968204
1.0367145695 0.1075594071 -0.0445552369
0.9241370742 0.0106178714 0.0836397944
0.9428839873 -0.1190079629 -0.0423378784
0.8843146949 0.0519078840 0.0415953500
0.8120702543 -0.1310410352 -0.0428777244
0.8818511722 -0.1335714614 -0.0400316224
0.8347018745 -0.1284637159 -0.0334514356
1.1268577918 -0.0214818332 0.0083917214
0.7738770041 -0.1052953373 0.0357262039
0.9157149478 -0.1151434909 0.0417685609
0.8380471931 -0.0635120177 -0.0331513702
0.8640959014 0.0773553184 0.0843603002
1.0991482526 0.1026719949 0.0046423657
1.0455337746 -0.1024163060 0.0998855676
0.8835594396 -0.1297142898 -0.0079945899
1.0959957645 0.1005903161 0.1133016026
1.1018361815 0.0914478363 -0.0072312977
0.7653896264 -0.0779217324 -0.0423482335
0.8879829270 -0.0310764927 0.1177605546
1.1123394026 -0.0286264486 0.1183565404
0.7682603822 -0.0983267898 0.0036044578
0.8762621503 0.0104121785 0.0723772187
1.0576307304 0.0559376829 0.1195647705
0.8636920106 -0.0066617931 -0.0433954313
0.7546734770 -0.0403178158 -0.0282082705
0.8980841795 0.0795362739 0.0446891854
0.9927226063 -0.1033435333 0.1255159061
0.9166789143 -0.1262986846 0.0570651591
0.9147892577 -0.0707828961 0.0447956996
0.9991716685 -0.0667669323 0.1193287266
0.9207689863 0.0256159250 0.0186418446
1.1104061389 -0.0297175462 -0.0438738834
0.7798332713 0.0160003226 -0.0433970429
0.8549751789 0.0802529581 -0.0114955320
0.8675224565 0.0707665416 0.0415640924
0.8331728305 -0.1350267747 -0.0335851680
0.7750028247 -0.1311307270 -0.0273994953
0.9709915400 -0.1140808901 -0.0431730586
0.9179208082 0.0510136255 -0.0437229224
1.1113000868 0.0357479103 0.1027527042
0.9236938990 0.0123104518 -0.0223797495
1.0398419980 -0.1045502121 0.0896723470
1.0474545689 0.0833100627 -0.0451198494
1.1110481295 0.0051969407 0.1187797025
0.9368280012 -0.0469938056 -0.0124266370
0.7546439723 -0.0185133881 0.0003685980
0.9106717049 -0.1230406315 -0.0239281365
0.8627863124 -0.0018170596 -0.0332210929
0.7972138795 -0.1019798150 -0.0331032200
0.9470947802 0.1041698005 0.1133962112
0.8997483315 -0.0856113221 0.0941740385
0.8848705218 -0.0159677078 -0.0332103486
1.0078105892 0.1208424368 0.0242516957
0.9330987353 -0.0300937812 0.0085780222
0.9176101792 0.1013102159 -0.0023260660
0.8604088911 -0.1389765487 -0.0169282212
0.9984184953 0.0389009444 0.1200569184
1.0709412670 0.0616659600 0.1190714829
0.9357217945 -0.0140553681 -0.0438201625
0.7550290097 -0.0417931471 -0.0042419647
1.0877879447 0.0498640022 -0.0441498155
0.9049397510 -0.0316107018 0.0447605204
1.0462398289 -0.0045835779 0.1204324824
1.1365984004 -0.0798208794 0.0769885030
1.0918135504 0.1259279859 0.0927630995
0.9015902229 -0.1160427726 -0.0335310021
0.8990824764 -0.0358929452 -0.0331927954
1.1220623706 -0.0034852618 0.0789045253
0.8164677774 -0.0644655358 -0.0433177308
1.0641062962 -0.0968325630 -0.0409752159
0.9048680831 -0.1149124603 0.0509993231
1.1154411095 -0.0849421853 0.1117874985
0.8991322919 -0.0594226844 0.0450197044
1.0387784350 0.1244390936 -0.0405715620
0.9296734544 -0.1230533642 0.0475691979
1.0318455578 0.1260215098 0.0263972761
0.9062335006 0.0881425640 0.1006239600
1.1037678297 -0.0897701564 0.0909622252
0.7792037553 -0.1434656559 0.0175770837
1.0089152111 -0.1132592882 -0.0245988170
0.9191406383 0.0332939139 0.1187888520
1.0949920760 0.1184963043 -0.0097248953
1.0541665863 0.0689552789 0.1194011557
0.9480255294 -0.0972200665 0.1143410565
0.8894165264 -0.1269318260 -0.0327254882
0.7981239956 0.0146932594 -0.0332244182
0.9493567958 0.1048737864 0.1109580836
1.0302250306 0.1207314515 -0.0423964660
0.9232524655 -0.0351243638 0.0416686395
0.7756696286 -0.1134374707 -0.0251573320
0.9353839086 0.0400333095 0.1194918089
0.9057402511 0.0496474553 -0.0434578779
1.0117908830 -0.0714624483 0.1191422928
0.9022648685 -0.1297143492 -0.0251490208
1.1262380561 -0.0281509943 0.0937177732
0.7774731270 -0.1215503030 -0.0142921331
0.9257790859 -0.0049583204 0.0446629715
1.0143549869 -0.0894384677 0.1195938113
0.8427631624 -0.0910696954 -0.0432970672
0.9090631261 -0.1013029111 -0.0431792366
0.8968292248 -0.0720858095 0.1006585367
0.8691807608 -0.0353707137 -0.0331869295
0.8646077852 0.0823873882 -0.0096833754
1.1349891359 -0.0816568310 -0.0227419553
0.9083760362 0.0815360318 0.0526802675
1.0690122573 0.1324913275 0.0480962364
0.9361968011 -0.0657233991 0.0447557000
0.7378782052 0.0479378121 0.0313876576
0.9340879794 -0.0345349870 0.0325785828
1.1365523847 -0.0777418563 -0.0180589806
0.7686748696 -0.0818860331 0.0056883249
0.9283407885 -0.0086678905 -0.0139838008
0.8808492387 0.0319368865 0.0447758459
0.9329056754 -0.0291289962 0.0390101984
1.0043110345 0.0671000450 -0.0451171354
0.9050974074 0.0547583779 -0.0434614666
0.8582572362 -0.0533189039 -0.0433403356
0.9527894661 -0.1203158434 -0.0141641529
1.0925074157 0.0894011171 0.1238488561
0.9896964994 -0.1170543414 0.0618578205
0.7666270341 -0.0634933771 -0.0425274531
1.1268710279 -0.0847682054 0.0194282513
0.9303083883 -0.0172091532 0.1058487609
0.7394589527 0.0307653551 -0.0079253161
0.9026729504 0.0583320031 0.0446614295
1.0285929942 0.0427949624 -0.0450978976
0.7466616510 0.0558895907 0.0023911915
1.0635413504 -0.0021713760 -0.0450598622
0.8540829592 -0.1224463118 -0.0428856750
0.7847461243 0.0187484263 -0.0332259096
0.9063036646 -0.0618346468 0.0417056518
0.7888157238 -0.0313689863 -0.0433417291
0.7615379101 -0.0496635901 -0.0186580389
0.8725069359 -0.0456204819 -0.0433571740
1.0619384330 -0.1015245328 -0.0031018977
0.8526270968 0.0797290608 -0.0178396861
0.8430399175 -0.1413274366 0.0300097266
0.9784410889 0.1147700978 -0.0122521325
0.7927198655 -0.1535350022 0.0010020457
1.0919638820 -0.0913169244 0.1086599904
0.7494986621 0.0566199224 0.0010108753
0.8777120712 -0.0293729482 0.0793738138
0.7911761542 0.0452966200 -0.0335292629
0.9492780129 -0.1028448480 0.1244123943
0.9529508906 -0.0837664071 0.1215209618
0.9546008038 0.1082197750 0.0847880991
0.8649598043 -0.1379301231 -0.0284146304
1.0472782407 -0.1045306423 -0.0354893328
1.0028536788 -0.0391586328 -0.0450147397
0.9131960508 0.0600804938 0.1068293571
0.9472843022 -0.0941653738 0.0123819545
0.9911475734 0.1168282013 0.0787005108
1.0934752336 0.1153416262 0.1104035665
0.8811357180 0.0148365466 0.1075739455
0.8993045819 0.0133734419 0.0447119734
1.0985259017 0.0391956216 -0.0438159941
0.9478363319 -0.0986403832 0.0449601254
1.0723373391 -0.0203406646 0.1197207765
1.1090313358 0.0579485021 0.0197141841
0.7592810570 0.0283270468 -0.0430179820
1.0515813492 -0.1005364227 0.1063511169
0.9898944215 -0.1083206404 -0.0438931568
0.7736930186 0.0622628321 0.0041118895
0.9981539870 0.0583650531 -0.0451095721
1.1362923552 -0.0773851772 0.0218527037
1.0019993453 0.0221913633 -0.0450729681
0.9462961215 -0.0894352101 0.1008832910
0.9512606679 -0.1123204158 0.0579494547
0.8823324031 0.0828122879 0.0058767788
0.8486223124 -0.0509198940 -0.0433370697
0.7453357063 0.0237095683 -0.0091533816
0.8694408999 0.0676244679 0.0613422213
0.9145076720 -0.0524098920 -0.0331822771
0.7867685117 -0.1546227307 -0.0080244420
0.8958881736 -0.1077637464 -0.0333449832
0.7633402588 -0.0577336005 0.0192023223
0.9125988099 0.0624836918 0.0072994083
0.8642609039 0.0778497116 0.0885892677
1.1276104516 -0.0261676026 0.0649869739
1.0540466721 0.1307972298 -0.0160696915
1.0156944953 -0.1077489941 0.1145413080
0.9164979566 -0.0713023802 -0.0433322867
0.8239167055 -0.0602998842 -0.0331494690
1.1251999978 -0.0173774801 0.0288894551
0.8679597407 0.0519994481 0.0506419414
0.9486159543 -0.1000204423 0.0634024775
0.9411427312 -0.0665001402 -0.0240590717
0.8910368016 -0.0487568151 0.1009026764
1.1324217409 -0.0476403577 -0.0009652776
0.7421587259 0.0517517120 0.0096726598
0.9228682508 0.0156673069 0.0480958822
1.0238819266 0.1196162307 0.1189114851
0.9400533411 -0.0614777186 0.0271593221
0.7751499838 0.0582074887 -0.0137129719
0.7669938944 -0.0923924926 0.0052440021
0.8121234355 0.0673587539 0.0083656050
1.0222136786 0.0166414317 0.1208095400
1.0356572457 0.0735674200 0.1193806188
1.0742865858 -0.0956231428 0.1049931813
0.7823750349 -0.1421709782 0.0180125202
0.9160414812 -0.0870125822 -0.0331619074
1.1184197591 0.0052606189 0.0985805276
1.0912529147 -0.0940653413 0.0514928256
1.0197482986 0.1205129803 0.1103728827
0.7845742458 -0.1544083359 0.0243187855
0.9062154573 -0.0031789237 0.0447285720
0.8739076194 0.0349932168 0.1084316371
0.7672510455 -0.0754739186 -0.0201867929
0.9512282931 -0.1118792727 0.1081967891
1.0919225730 -0.0202184725 -0.0444946619
0.7811063245 0.0638858029 -0.0220687835
1.0350253387 0.1234697817 0.0440952357
1.0929716347 -0.0180466634 0.1189902471
0.8931642216 -0.0395489521 0.0686244290
0.8783157203 0.0825037992 0.1020952650
0.9077557201 -0.1281014189 -0.0364981642
0.9573444546 -0.1083713533 0.1255777505
0.9171414845 -0.1263877035 0.0021697955
0.8729602313 0.0321320368 0.0875099897
1.0939220231 -0.0335055545 0.1190544566
1.0905862989 -0.0481269898 0.1190496512
0.8784798486 -0.0638662428 -0.0433391135
1.0989575588 -0.0899781555 0.0452328492
0.8741975144 0.0461979396 0.1021621925
0.8139245882 0.0711684564 -0.0091373914
0.9014529455 0.0065280747 0.0447193254
1.0693628132 0.1126832799 0.1194834506
1.0412996608 -0.1061053841 -0.0211106199
1.0548331007 0.0882261208 0.1189641020
0.8156829831 0.0252815967 -0.0434113466
1.0121884130 0.0774688735 0.1191205246
0.9129524143 0.0315061688 -0.0434524514
0.9159226717 -0.1251871174 -0.0423669569
1.0832342883 0.0656035136 0.1185759065
0.8307618796 -0.1401212160 -0.0323877240
0.9135127601 0.0583190376 -0.0080943849
0.9864330837 0.0315723304 -0.0450835182
0.9349682277 -0.1222082413 0.0846287032
0.9946492880 -0.1135895144 0.1009136100
0.8682971180 0.0831787369 0.0106110210
0.8918167765 -0.1301390392 0.0324828987
1.0959842815 0.1128762755 0.0244237379
0.9664623427 0.0470841849 -0.0450952660
1.0520268360 -0.1036822602 0.0137555923
0.8877365151 0.0841776968 0.0814239686
0.8267801963 -0.1453991471 0.0254846275
1.0577669947 0.0231908544 0.1198970301
0.8642102273 0.0335523965 -0.0332608849
0.8929475471 -0.0646259294 0.0721462982
1.0570197214 0.1312515006 -0.0207334121
0.8780597013 0.0611475101 0.0415866515
0.9455954175 -0.0863647354 0.0632570448
1.1050952235 0.0768504694 -0.0035655405
0.7659977277 -0.0909326036 -0.0302308125
0.9114890532 -0.0481231983 0.0416920292
1.0028941715 0.1181923928 0.0342691763
0.9130851363 -0.1272992723 -0.0067858187
0.8740329053 -0.0874636173 -0.0331364946
0.8827192171 -0.0197228744 0.0739075070
1.0456306230 0.0673133016 -0.0451238112
0.8535372252 -0.1319329163 -0.0425675364
0.9282547151 -0.0136144637 -0.0330748345
0.9924680641 -0.0751176379 -0.0449470601
0.9142155349 -0.1136081232 0.0448964555
0.9045931376 -0.0910885607 0.0984886078
0.7846298288 0.0646722347 -0.0171749204
0.9159522930 0.0087179975 -0.0332524895
0.8749475984 -0.0234211978 0.0793423805
0.8720257997 -0.1363862095 -0.0019693127
0.8917677246 0.0471660651 -0.0332875515
0.9350149307 -0.0514408407 0.0416427786
0.8336159310 -0.1312985713 -0.0335047814
0.9310462259 -0.0204751812 0.1273292641
1.1076929146 0.0594727563 -0.0370479386
0.8293492697 -0.0065351815 -0.0433788251
1.1350969230 -0.0620337448 0.0703872679
1.0263704604 -0.0279931673 0.1201536016
1.0874636571 -0.0773099665 -0.0442945812
1.0859463114 0.1356553448 0.0638409954
1.0423259751 0.0318648379 0.1202804113
0.8783729629 0.0036995306 0.0565231930
0.8863087081 0.0550510002 0.0415920636
1.1084003082 -0.0852897056 0.1187741594
0.8549116703 0.0801498601 -0.0299087977
0.8967773607 -0.1308557063 0.0107968754
0.8487670005 -0.0703341853 -0.0331491989
0.9252271800 0.0053935373 -0.0182344355
1.0364276433 -0.0536206775 0.1194687336
0.9461718739 0.1073720813 0.0640086706
0.7467879171 -0.0008078177 0.0063936480
0.9130020384 0.0143640838 -0.0434239971
0.8893993661 -0.0225860503 0.0544468713
1.1300389062 -0.0359402831 -0.0077652042
0.8797054957 0.0212800230 0.0702833939
0.9587715781 0.0292331594 0.1194480961
1.0912111312 0.0633044873 -0.0439175363
0.7588846795 -0.0516260467 0.0212163040
0.8062800043 -0.0127214685 -0.0433690503
0.9172532885 0.0027642508 0.0416294922
0.8058901509 -0.0073436275 -0.0433752426
0.9086451363 0.0342792483 0.0446868811
1.0469072352 0.0665247750 0.1195522234
1.0766821679 -0.0955682303 0.0993330317
0.7980510724 -0.1517354460 0.0245259695
0.8409441514 -0.1073913253 -0.0331444089
1.1214389626 0.0026295835 -0.0202101914
0.8300694696 -0.0623897272 -0.0433208996
0.9087420897 -0.0899594218 0.0417357036
1.0378631528 -0.1068566698 -0.0080089700
0.7673796097 -0.0982410385 -0.0238930311
1.0082587216 -0.1134038745 -0.0021882973
0.9382336820 -0.1215005333 0.0162709408
1.0474948987 -0.0742057877 -0.0447111621
0.8154259031 -0.1489189423 -0.0029461054
0.8924768671 0.0885118067 0.1003754502
0.8919537273 0.0843902986 -0.0070946503
0.8935293122 -0.0659000651 0.0622269306
0.9856972098 0.1163762923 -0.0142154693
0.9422252169 -0.0713804366 -0.0263438252
0.8352533709 -0.0741528671 -0.0433120587
0.8933342569 -0.0404209507 0.0504511030
0.9023466643 0.0881075641 0.0281481992
0.8309538815 -0.1363431298 -0.0425619576
0.9717825426 0.0226188075 -0.0450699382
0.9058556824 -0.1278095930 -0.0421078546
0.7927599102 -0.1535398329 -0.0213831303
1.1097688018 0.0541100679 0.0726690245
0.9847345910 0.0093702763 0.1202506135
1.0743786130 0.1330708764 0.0883860606
0.8924410683 0.0239373093 0.0416203431
0.9182367749 0.0370064479 0.0023325693
0.9442047174 0.0891897212 0.1254251891
0.9047958638 -0.0669587754 0.0417109820
0.8967804950 0.0182718974 0.0416254793
0.7473648573 0.0560015125 0.0141446494
0.9297146309 -0.0145950027 0.0776890347
1.0448512699 0.0682788676 0.1195213731
1.0024721746 -0.0644834927 0.1193688062
0.7446653461 0.0100146931 0.0121483331
0.9058714722 -0.1060771052 0.1163672254
0.8243785505 -0.0663260693 -0.0331445107
1.0034940552 -0.0459767245 -0.0450071968
0.9326268942 -0.1227490472 0.0528813392
1.1298174120 -0.0419354720 0.0877871348
0.8098659072 -0.0453966975 -0.0433349138
1.0779500644 0.1337126063 0.0465150353
1.1325580787 -0.0554772434 0.0328472630
0.9003609191 -0.1297674128 -0.0360880116
0.8693272658 -0.0256634028 0.0937469872
1.0176029646 -0.0272271136 0.1202160450
0.9533591715 0.1090763038 0.0693046375
0.9411829521 0.1011325100 0.1192004283
0.8880532801 -0.0339523573 0.1092130224
0.9065752506 -0.1121696770 0.0986151113
0.7723481911 0.0613146528 0.0221314844
0.8669614002 -0.0321540900 0.0893429639
0.8099344625 -0.0527401835 -0.0433276371
0.7418562247 0.0546138595 -0.0123389319
1.0443437547 -0.1054151504 -0.0005332878
1.1070119251 0.0137896315 -0.0436787234
1.0140150541 0.1138737256 0.1226839733
0.7776135236 -0.1367382625 0.0177382809
0.8388385017 -0.1213666539 -0.0430160743
1.0949059935 0.1189346442 0.0683326893
0.9453689366 -0.0853101944 0.0725174863
1.0532004924 -0.0180993624 -0.0450410431
0.9252627265 0.1011085983 0.0919273117
1.0851508061 0.0088870694 -0.0445372254
0.9489521771 -0.1155814270 0.0663502326
1.0843255287 -0.0019047994 0.1191653707
0.7823662891 0.0641582674 -0.0245617286
0.9067723757 0.0892326406 0.1160265994
0.9452839025 -0.0855352153 0.0405864635
0.8678265681 0.0830594424 0.1032561371
1.0692031012 -0.0670459443 0.1189706802
0.8771493073 0.0819352968 0.0863553765
0.9323307627 -0.0265924653 0.0296126524
0.8052530144 0.0691317212 0.0145155469
1.0571024384 0.0118650859 -0.0450729313
0.9784169050 0.0180434547 -0.0450669277
0.8151332004 0.0684077370 0.0172750861
0.9354243802 -0.0441862502 0.0446888927
0.9874074425 -0.0390328763 0.1199072202
0.9764603275 -0.1204394850 0.0028661046
0.8499093197 -0.1362521979 -0.0285308153
0.8798775173 0.0404063353 0.0447375951
1.0113486972 0.1160428204 0.0420909220
0.9682079954 -0.0093789484 -0.0450288766
0.8140117717 -0.1450666334 -0.0085963957
0.9265378229 -0.0004587621 0.0097040905
0.7598808337 -0.0648535073 -0.0144927400
1.0232198643 0.0354528405 -0.0450887496
0.8320905620 -0.1394230792 -0.0424418711
1.1114900424 0.0323786397 -0.0409250923
1.0835428256 -0.0598774941 -0.0448610652
0.7532315685 -0.0120371574 0.0279972292
0.9483742302 0.0155269371 0.1192830671
0.9955469834 0.0413813663 0.1199741612
1.0213623152 0.1196934066 0.0434020313
0.8890221829 -0.0204697876 -0.0332063883
0.8185166609 -0.1162350406 -0.0432286931
0.8320489764 0.0712027953 -0.0047337737
0.8743842270 0.0506368373 -0.0333362798
0.8556023707 -0.1395730299 0.0194147411
0.9590174649 0.0992772003 0.1244824131
1.1030135064 0.0690855829 0.1129254169
0.9353921953 -0.0400783518 0.1271436039
1.1291265188 -0.0434316297 -0.0395058720
0.7720912714 0.0593477992 0.0307827215
1.1123337723 -0.0832187907 -0.0425140554
1.1247748688 -0.0332240893 0.1175164631
0.9286686525 0.1036031839 -0.0301896339
0.9517752762 -0.1193980429 -0.0189308481
0.8973569525 -0.0590365254 0.1189588412
0.9739314152 -0.0989348066 -0.0442804187
1.1072610512 0.0660015442 0.0193130141
0.8157438462 -0.1486525356 0.0158527292
1.0076228571 -0.0618853584 -0.0449878579
0.9727877567 -0.1197862447 0.0851518802
0.8748189442 0.0216621991 0.0858480768
1.1081180170 -0.0268107467 -0.0439412721
0.8076952543 0.0697919481 -0.0019152835
1.1169220926 0.0194047303 0.0797958309
1.1009722511 0.0894354228 0.0848753172
1.0703629653 0.1331472848 0.0527469259
1.0152767044 -0.0505204058 0.1196574817
1.0962418461 -0.0763919186 -0.0440937739
0.9367336411 -0.1184388030 0.0752149988
1.0677017810 0.1295223624 -0.0406251939
0.7976139375 -0.0935101474 -0.0331115092
0.7604254836 -0.0330856194 -0.0425784788
0.7399824479 0.0534030602 -0.0403582267
1.0588370902 -0.0265547870 0.1199581910
0.9247992564 -0.0210653457 -0.0332186656
1.0752478169 -0.0984758110 -0.0298092599
0.7661721908 -0.0705475259 0.0165845991
0.8814799796 -0.0756302182 -0.0331516214
1.1010046370 -0.0099201660 0.1186149510
0.8151579746 -0.0811051561 -0.0331292463
0.8813029927 -0.0108337846 0.0884152771
0.8822048964 0.0449115739 -0.0332821052
1.1232964939 -0.0053617114 -0.0104402576
0.7575370069 -0.0414338340 0.0334818224
0.9757740292 -0.1079519581 -0.0439543725
0.8924777762 -0.0373447898 0.1207851883
1.0776785379 -0.0971558128 0.0300926206
1.0088283094 0.0472023359 0.1199022902
1.0242080990 0.0495329803 0.1199280398
0.8170114183 -0.1238955490 -0.0430718980
0.9225333220 -0.0667650406 -0.0331714463
1.1140920196 0.0285714643 0.0460207394
1.0054026592 0.1195511014 0.0837933526
0.9088847257 0.0797084930 0.1243145618
0.9164834152 0.1001293140 0.0806193563
1.0954787904 0.1161215114 0.0631292113
0.9062052936 -0.0360700327 0.0447647362
0.8783211183 -0.1350040387 -0.0107002728
1.1176165592 0.0109666601 0.0933129387
0.9195114872 0.0312389239 -0.0022573954
0.7483072681 -0.0118448449 -0.0258950572
0.9393113255 -0.1214920027 -0.0144783593
0.8990801324 0.0167387713 -0.0434190972
0.8882727386 -0.0424280833 0.0633696865
0.7753589412 -0.1270256338 0.0177472399
0.8515760367 0.0755531771 -0.0042781216
0.9005561721 -0.0892651643 0.0926209587
1.0308870533 -0.1026003557 0.0382793109
0.9373569370 -0.0489115553 0.1281746284
0.7633878668 0.0599878912 -0.0021526149
0.8282663634 0.0195963900 -0.0434073890
0.7962162576 -0.1528862121 0.0030346579
0.9370889561 -0.0478733969 0.0883528727
1.0340767418 0.1266833214 0.0232938484
0.7731333056 -0.1020046012 -0.0146948459
0.8740311355 0.0844779391 0.0072398830
0.7732183783 0.0414852155 -0.0335348177
1.0874573215 0.1352457204 0.0107536799
0.7641625246 -0.0709712208 0.0347302923
1.0882276352 -0.0956469831 -0.0231494446
0.7478908771 -0.0095900600 -0.0279588509
1.0604445921 -0.0999845160 0.0897118431
0.7477887136 -0.0094076914 -0.0171747227
0.9497154295 -0.1193268369 -0.0133792374
0.8903201491 0.0269067317 0.0416176284
0.8970924384 -0.0473462164 -0.0433579949
1.1003626629 0.0930539030 0.0319872868
0.9771361938 0.1117381012 0.1022821040
0.8302187854 0.0702600475 -0.0171346281
0.8787671203 0.0032441084 0.0910881392
0.9074645949 0.0855562005 0.0939818701
1.0019657491 0.1166691471 0.1092953934
0.7446386810 0.0111147895 0.0161194324
0.9801414465 -0.0661343731 0.1193576528
0.8948581777 0.0244141632 -0.0332574673
0.9187175446 0.0997128095 0.0912594584
1.0756338996 0.0705674159 -0.0444448392
0.7802182826 -0.0019092417 -0.0332019164
1.1049888607 0.0538460051 -0.0430947657
0.8763507381 0.0849794496 -0.0214147304
0.9241099826 0.0107048899 0.0711647492
1.0267547283 0.1240944934 0.0473352886
0.9001286690 0.0901913895 0.0815048553
0.8678671841 -0.0244708644 -0.0331982085
0.8459306902 -0.0650132030 -0.0433228802
0.9882269871 0.1169456313 -0.0035232868
1.0080630810 0.0672506969 -0.0451178172
0.9103031912 0.0727984412 -0.0138466508
0.9054750661 0.0968439938 0.0278477024
0.9250244254 -0.0840041596 -0.0433152287
1.0464287401 -0.0177154484 -0.0450394909
1.0084095684 0.1152107644 0.0419194576
0.8970757753 -0.0779904030 0.0843566956
1.1174015494 -0.0277150484 0.1184265040
0.8917039038 -0.0587660047 0.0679030184
0.8269932406 -0.0133765679 -0.0433702813
1.0653662958 0.0888494287 -0.0446616021
1.1104822366 0.0524997516 -0.0123285505
1.1358696102 -0.0748329654 -0.0335073413
1.0670893698 -0.0948592778 -0.0423033572
0.8506951344 -0.1411164219 -0.0092167228
1.0276454804 0.1166257709 -0.0441628118
0.8882683891 -0.0002136482 -0.0434044298
1.1125181842 0.0417640153 0.0722618627
0.9935309128 0.0886528119 -0.0448332071
0.7740870554 0.0618446203 -0.0377385558
0.9254027482 0.1006598639 0.0976191808
1.0454183633 -0.1043573249 0.0522936590
0.9333288130 -0.0308464006 0.1053136763
0.7664447319 -0.0902055186 0.0037186404
0.9070872754 -0.1023446374 0.0930927196
0.8465185020 -0.0283437945 -0.0331858840
0.9295689662 -0.0142207583 -0.0150601654
0.9184925607 -0.0346651723 -0.0332025947
0.9184361403 -0.1216059735 0.0471839883
0.8076824832 -0.1142561084 -0.0331382887
1.0736326090 0.1308997787 0.0440260077
0.8806481840 -0.0842973325 -0.0433167761
0.9339535461 -0.0337403036 0.0756832897
0.7942383568 0.0327631317 -0.0333026628
0.7617009404 -0.0503875294 -0.0120487072
0.9417583564 -0.1096284074 0.0417601576
1.1201736106 0.0087580981 0.0056762085
0.9169920351 0.0253848780 0.0446506022
1.0268622452 -0.1066867697 -0.0393113369
1.1077243282 0.0603215525 0.0484825899
0.9384329980 -0.0682071660 0.0416754605
1.1340789570 -0.0581250490 -0.0266209100
0.9116481235 0.0669460484 0.0604880567
1.0028582962 -0.1094305057 0.0431960864
1.0441853064 0.0209278296 0.1203698428
0.8975766262 0.0519001766 -0.0434468039
0.7709472948 -0.1018832702 0.0338907984
0.8024000683 0.0629139483 -0.0426504315
1.0220426029 0.0416751125 0.1201261118
0.9187796226 -0.1221755930 -0.0020703552
0.8845910384 -0.0246933274 0.0578465731
0.8393693652 -0.1155887686 -0.0332363302
1.0382144519 -0.0157543851 -0.0450391976
1.0751207320 -0.0979183333 0.0274137303
0.9431345972 -0.1173394081 0.0118722456
1.0319648363 -0.0361040607 0.1199216094
1.0003028393 -0.1109522158 0.1152200736
0.9188405163 0.0345588215 0.0959164322
0.9967741319 0.1182696520 0.0554674583
0.9530986978 -0.1205406455 0.0230234462
0.9177123095 -0.1260170839 0.1038865899
0.9262722793 -0.1241672999 0.0537810765
0.7913969464 0.0522828745 -0.0429099351
1.0367589817 0.1275381436 -0.0288667521
0.9793519775 0.0315350299 -0.0450828951
1.0444809859 0.1290898808 0.0675742060
1.1309174795 -0.0400669143 -0.0132222170
0.9283437631 -0.0085875558 0.0273162045
0.9897003676 -0.0463441935 0.1198138190
1.1365226480 -0.0750434506 -0.0107760777
0.9420093010 -0.0701226078 0.0785826334
0.9426159323 -0.1205191893 0.0812781158
0.8163537165 -0.0848805887 -0.0433017807
0.9427882683 -0.0734889764 0.1239676133
0.9864605458 0.1078699121 0.1225829043
0.9921948337 -0.0589756663 0.1195573941
0.7779840337 -0.1237914238 -0.0038058429
0.8189516399 -0.0433117445 -0.0433384888
0.8429733626 0.0747989342 0.0228749594
0.9100501706 -0.1156865692 0.0986863721
0.9329883064 -0.0301169720 0.0453673477
0.8810974015 0.0161571874 0.0454186059
0.9600119832 -0.0878400810 -0.0441267986
1.0477621868 -0.0646004503 0.1191368289
0.9256182298 0.0040167856 0.1158476076
0.9096819068 0.0755919148 -0.0204482468
0.8992851593 -0.1257645330 -0.0193247433
1.0992903396 0.0966435047 0.0474607955
0.9409133423 0.0554732960 -0.0449194332
0.7783998524 -0.1256083071 -0.0140093783
0.7957136612 -0.0576238746 -0.0331400585
0.9578399249 -0.1161867001 0.1223690637
1.0770099365 -0.0328211446 -0.0450001025
0.9006521337 -0.0732952804 0.0772873820
0.9284955486 -0.0493153802 -0.0331952790
0.8805650591 0.0088498221 0.0416431937
1.0086658520 0.1003316034 0.1254756117
0.9104789897 -0.1174817758 0.1083281664
0.9710931439 -0.0060707828 -0.0450361090
0.9353257222 -0.0398408072 0.1134534796
0.7940230051 -0.1485367192 -0.0314615235
0.8047174528 -0.1463916544 -0.0423336350
0.8223870972 -0.0763130444 -0.0433084007
0.8100980350 -0.0690691516 -0.0433142317
0.7721339972 -0.0762720632 -0.0426175788
0.9330291595 -0.1202626750 0.0304279177
0.9106422512 -0.0657630529 0.0447943405
0.8634327691 0.0805882736 0.0828413577
1.1101336383 -0.0896723014 0.0148478554
1.1061111765 0.0667054910 0.0836148532
1.0909408873 0.1243643625 0.1192041264
0.7666718616 0.0414349938 -0.0430283985
1.1134122988 0.0393119420 -0.0026659608
1.1199608235 -0.0387678604 0.1184269176
0.9546132402 0.0108515381 0.1192819844
0.8736156025 -0.0135677479 -0.0433903487
0.9247786740 -0.1142706832 0.0448562941
1.0814672213 0.1349224949 -0.0246021912
0.7833968435 -0.1072316101 -0.0427405692
0.9350089636 0.0977346518 0.0397101732
1.1315422368 -0.0830133047 0.0777694346
0.8728050308 0.0806244856 0.0041325089
0.7386050734 0.0352742003 -0.0061702079
1.0976690672 -0.0907047562 0.0988485572
0.9432022949 -0.0358038048 0.1202536613
0.9297692917 -0.0150486988 0.0359005114
1.0092083143 -0.1057566118 0.0411109855
0.9898909566 0.1170980636 0.0200813503
0.8907624466 0.0825916223 -0.0333327062
0.8680089341 0.0522007875 0.0729087054
1.0224850252 -0.0496369329 -0.0450031245
0.7800031707 -0.1506185401 -0.0257559311
1.1275702902 -0.0247947219 -0.0157625919
1.1153628209 -0.0719038802 0.1255681030
1.1034538217 0.0840018467 0.0140929373
0.8709883801 0.0387282199 0.0490799995
0.9841901005 0.0699758341 -0.0451094550
0.7931084599 0.0620645715 -0.0165659755
0.8998874205 0.0493752543 -0.0434471924
1.0612875613 -0.0102414955 -0.0450508060
1.0631488830 0.1322557397 -0.0230486157
0.9001726992 -0.0715176844 0.1187828344
0.8822864174 -0.0923240467 -0.0331398367
1.1364638035 -0.0737919346 0.0147666127
1.1205346603 -0.0017947094 0.0922580534
0.8858344866 -0.0250592889 0.0423850552
1.0589277869 0.1274196180 0.0432619384
0.8243633152 -0.0556951968 -0.0331536851
1.0935949728 0.1232271516 0.0636402489
0.8371750962 -0.0113728439 -0.0433752084
0.9664752480 -0.0245153821 0.1193913199
0.9257606119 0.1031142652 -0.0031280910
0.7889716863 -0.1488138389 -0.0420584189
0.8304414378 0.0747460055 -0.0291481174
0.8796833926 0.0856544052 0.0680441136
0.9499197045 -0.1188424796 0.0930273497
1.1252443017 -0.0141422302 -0.0037685973
0.8966629691 0.0183238812 0.0447073743
0.8728921213 0.0521381869 0.1117674834
0.8684169778 0.0722067462 0.0537841847
0.7659888797 -0.0696829493 0.0232021209
1.0987314796 0.1018785793 -0.0344563630
0.9440386348 -0.0794843323 0.0190902201
1.0212144683 0.0467846656 -0.0451001809
1.0904324942 0.1278970618 -0.0379393691
0.9674906704 0.0535321027 0.1194768368
0.9492030404 0.0453706970 -0.0450565495
0.9102518854 0.0384529453 0.0415980011
1.1226503513 -0.0024421327 -0.0098699341
0.7680864953 -0.0791589055 0.0324300578
0.9974151469 -0.1146279550 0.0486886306
0.9782085616 -0.1002716975 0.1256334733
0.7812091779 -0.1374519110 -0.0129829411
0.9349095673 -0.0380237605 0.0897263553
1.0001855071 0.0411192024 0.1200096908
1.1086982563 0.0595761311 -0.0241119070
0.7418611109 0.0302391863 0.0357836722
1.0981387979 0.1048314857 0.0563551100
0.7450992992 0.0248235609 -0.0042807271
0.8775965100 0.0307779748 0.0612317167
0.7464194029 -0.0514875973 -0.0046038306
0.7413117147 0.0435287307 -0.0283655062
0.9551249252 0.1029058924 0.0389161311
0.7515394568 -0.0252450458 -0.0081029688
1.0333199659 -0.1071819090 0.0275188739
0.7489137037 0.0073735829 0.0034714088
1.0151337761 -0.0938093267 -0.0442705013
0.9903064981 -0.1060074043 0.1246426797
1.1010072623 0.0949733622 -0.0185653196
1.0893466435 0.0173595015 0.1188042670
1.0483233641 0.1265623507 -0.0402405296
0.8416848832 -0.0020586849 -0.0433883593
0.7434883687 0.0550576844 -0.0017788510
0.9064468689 -0.0612454417 -0.0331705673
1.1040409920 0.0796049685 0.0608434376
0.8826764438 -0.0113469795 0.1043098657
0.9875455043 0.0356660815 -0.0450881531
1.0195157707 0.0944326118 0.1187320832
0.9434914439 -0.0770097612 0.0296393939
1.0176078184 -0.1093530982 0.0910566143
0.9454716181 0.0167250062 -0.0447130702
0.9043775936 -0.1077538495 0.0822215392
1.0555935054 0.0431248433 -0.0450964516
1.0711408445 0.1167400828 -0.0438126642
0.7456666112 0.0512790791 -0.0225091070
0.8700068516 0.0651839928 0.1120309130
1.0723242978 0.0077190493 -0.0449685151
0.9412617674 -0.0669393509 0.0227276452
0.9314931777 -0.0228746872 -0.0020699615
0.9423422869 -0.0716506952 0.0693472778
0.9219064921 0.0205717544 0.0406565720
0.8887380024 0.0088209409 -0.0332379754
0.9930195683 -0.0265007457 0.1201936912
1.1346508471 -0.0630426234 0.0806025760
1.1144447197 0.0322434651 0.0754191973
0.8939588525 0.0888761993 0.0059318349
0.7586363683 -0.0365717427 -0.0202542393
1.1126938907 -0.0768652850 0.1250828554
1.1245892541 -0.0548281281 0.1217306483
0.8863683011 -0.0337972820 0.0631678234
0.9751621919 -0.0378528070 0.1195695896
0.9365099419 -0.1193933106 0.0273740029
0.9241455815 -0.0398657890 0.0416738746
1.1255734394 -0.0854237995 0.0054800973
0.8932895103 -0.0400477117 0.0893902926
0.8875018731 -0.0139699277 0.0749041381
0.8965109282 0.0861187556 0.0100235817
0.9692821835 0.0607093337 0.1192992569
0.9479529053 -0.0785380122 -0.0436637982
1.0191097122 -0.1103553806 0.0565077401
0.9925330864 -0.1103625066 -0.0430060772
1.0228632928 0.1196857251 -0.0418277040
0.9056377577 -0.1121132766 0.0845025303
0.9229679938 0.0156772828 0.0359458086
1.1203868145 0.0076028045 -0.0179265251
1.1062856553 0.0703086347 -0.0252067345
0.9407743475 -0.0346631579 0.1275944507
1.1364879773 -0.0748101480 -0.0192995560
1.0373749224 -0.1069769752 -0.0188178891
1.0576671312 0.0786744227 -0.0449939944
1.0046790627 0.0795103917 -0.0450888959
0.9934235655 -0.1163067008 0.0714288084
0.7751470201 0.0405875355 -0.0431545042
1.1139394196 0.0240070470 0.1023041464
0.9009500245 -0.0213290133 0.0447488361
0.7519142556 -0.0236845240 0.0090813130
0.9397297579 0.0189226626 0.1195310998
0.8727111252 0.0529232256 0.1044232595
1.1177061601 0.0018551229 0.1151401349
0.7742810143 -0.0982573154 -0.0424925106
0.8273578361 -0.0206158437 -0.0433628193
0.7696108168 -0.0860796629 -0.0256550230
0.7492324410 0.0060231736 0.0277601800
0.9062890159 0.0531171351 0.0446668742
0.7360406203 0.0521997456 -0.0334228106
0.8986156666 -0.0373741371 0.0416849931
1.0266505763 -0.0187330891 -0.0450338085
1.0192127717 -0.1109565274 0.0118139670
0.8732061797 0.0292363652 0.0835050323
1.0724516965 0.1134352571 0.1239742565
0.9343408703 -0.1220675505 0.0204374857
1.0675762811 -0.0530212318 -0.0449940829
1.1253946500 -0.0812672359 0.0432218783
0.9092356421 0.0776745269 0.0152978643
0.9230590247 0.0156178428 0.1253633437
0.9160854678 -0.1232568472 0.0876005768
1.0796435012 0.1346529978 -0.0294686498
0.9287547184 -0.1238128452 0.0031581014
1.0247672658 0.1250130406 -0.0213162773
0.8357937153 -0.0287385358 -0.0331827635
1.1093409481 -0.0213865175 0.1184047235
0.9290739534 -0.1232861484 0.0198337401
0.9081705559 -0.1087100708 -0.0429746726
0.7411996791 0.0205809212 -0.0196210794
0.8970280763 -0.0215582298 -0.0433819968
1.0874354758 0.0782444979 -0.0439443937
0.8944460254 -0.0458891679 0.0466023203
1.0408535802 -0.0348689156 -0.0450198518
0.8828527961 -0.0486185494 -0.0331771260
0.8370058936 -0.0750055436 -0.0331412933
1.1359687729 -0.0675379353 0.0725785658
0.7968259731 0.0640917359 0.0111910328
0.7538076727 0.0528318882 -0.0285977754
0.8647453470 0.0821702889 0.0173869261
1.0007794847 0.1166308047 0.1065335444
0.7653731949 -0.0882659760 -0.0295676374
0.8900424323 -0.1253073670 -0.0425494689
0.8707142587 0.0619370439 0.0861283613
0.8965453709 0.0861176490 0.0810148933
1.1286343702 -0.0417528255 0.1007628430
0.9975061076 -0.1143579494 0.0329136604
0.9147989162 -0.0970754934 -0.0332421081
0.7493986362 -0.0171940539 -0.0232287101
0.8888363463 -0.0435596420 0.0565887953
1.0296163922 -0.1082858175 0.0228264777
0.9625486031 0.0880296423 -0.0446159683
0.8936660151 0.0511914173 -0.0434466261
1.0813894439 0.1352201245 0.0641103186
0.7678010858 -0.0863436145 0.0380092141
1.1364613484 -0.0797373865 0.0563081931
1.0818894994 0.1044098782 0.1181943926
0.9773132954 -0.0968297548 -0.0443850649
0.9935925597 -0.1152839440 0.0840296797
0.7996960497 -0.0544415023 -0.0331444494
1.0930042829 -0.0944767556 -0.0197258782
0.8771707804 0.0061299351 0.0729684377
1.0994596407 0.1015073501 -0.0159355457
0.9262088810 0.1032242788 0.0067813630
0.9034950540 0.0895084635 0.0314689962
0.8161992586 -0.0377172724 -0.0433437514
0.9049264835 -0.1160104023 0.0597659176
1.0215176287 0.0116251980 0.1209480651
1.0136378273 0.0886187709 -0.0449762917
0.8171521206 -0.0727171983 -0.0331371017
0.7733699841 -0.0303417917 -0.0430590865
0.8781292958 0.0284445369 0.0926042994
1.0701445057 0.1316446379 0.0968505812
1.1218315949 0.0012844382 -0.0015187318
0.8828593520 -0.1338476216 -0.0324989637
0.8927055501 -0.0374287218 0.1142855891
0.9102415558 -0.1004807367 0.0448810368
0.9418342880 0.0475955338 0.1192122638
0.8651581494 0.0634821658 0.0617130265
0.7552926743 0.0080231125 -0.0331869172
1.1101925440 0.0449122014 0.0345148852
1.0559703243 0.0042577699 -0.0450650159
0.9922768803 -0.1161753634 0.0771137908
1.1129968502 -0.0636543902 -0.0437744102
0.8853183938 -0.0040503485 0.0876240341
0.9319724762 -0.1224617722 -0.0402958687
0.9500066483 -0.1060520873 0.1231930009
0.7441710285 0.0075910576 -0.0294899646
0.7649819713 -0.0792711521 0.0208790955
1.0902376906 -0.0945528636 0.0582886506
0.7835722460 -0.1469856993 0.0191206040
1.1024702253 0.0884791807 -0.0181445913
1.0697589171 0.0854342545 -0.0445420116
0.9949842111 -0.0553067489 -0.0449955788
0.9167021876 -0.0448533208 -0.0433584048
0.9279156551 0.0251367825 0.1244542539
0.8642527093 -0.1344524313 0.0033260469
0.8674317211 0.0767746707 0.0989450149
0.8137795803 0.0435181668 -0.0334018255
1.0964741127 0.0884138405 0.1179516080
0.7488135045 0.0563654184 -0.0282128231
1.0503702172 0.1285485583 0.0913343048
0.7362047490 0.0450793012 -0.0218591059
0.7541168272 -0.0066113296 -0.0425890062
0.9267363069 0.0755786697 -0.0443022196
0.9483836166 -0.0989381767 0.0732460115
0.9443422086 -0.0805664671 0.1143627677
1.0717790954 0.1328361627 0.0309121917
1.0889684913 0.0081228438 -0.0444049502
1.0802692553 -0.0940418650 0.0447922670
1.0982531470 0.0623303558 -0.0436520710
0.8260354129 -0.0240405656 -0.0331861837
1.1033853087 -0.0627359419 -0.0441479468
1.0199649387 -0.0130618675 0.1205617458
0.9490557518 -0.1021630144 0.0514169242
1.0735970008 -0.0282411649 0.1196564452
0.8497221189 -0.1386212742 0.0272750011
0.9764346404 0.1141977025 0.0680164032
0.8665726872 -0.0788521034 -0.0331448482
0.9863900405 -0.0100188880 0.1201925220
0.8702644738 0.0501472188 0.0977309784
1.0029131822 0.1198054373 0.0735909017
1.0840442533 -0.0965062247 -0.0298798479
1.0969180045 0.1089353932 0.0260523705
0.7502674266 -0.0128492586 0.0206312676
0.7720094676 0.0576408990 -0.0106259718
1.1105515968 -0.0896696440 -0.0117290460
0.9627432520 0.0000421199 -0.0450334699
0.7631965028 0.0556795353 -0.0107426873
0.7898547458 -0.1069160079 -0.0429625990
0.9530366326 0.0806171367 -0.0447833501
1.0781995697 -0.0974054591 0.0245935017
0.8268868292 -0.1247279468 -0.0429878952
0.7589161336 -0.0570177543 0.0037160301
0.9311758597 0.0910640175 0.1252881408
0.8808530019 0.0159570857 0.0509154344
0.9175302538 0.0357084796 -0.0330950994
0.9404913810 0.1056205570 0.0507865087
0.7585734842 -0.0361886365 0.0226797222
1.0902157676 0.1302217616 -0.0337962630
0.8768247977 0.0850318327 0.0795132933
0.9105098493 -0.0939453814 0.0417390780
0.8638702562 -0.1378277011 -0.0363502893
1.1037186656 0.0830420278 0.0023635781
0.9449617857 -0.0834846524 0.0679960447
0.8800507861 0.0197434838 0.0765270299
0.7553199754 -0.0431374362 -0.0286788490
0.9154389856 0.1007523631 -0.0257477405
0.7730497639 -0.1016254923 -0.0056890080
0.7829429244 -0.0165041574 -0.0433512722
1.1160118886 -0.0860110519 -0.0386821052
0.7737811376 -0.0077897206 -0.0331931034
1.0433761959 0.1289881548 -0.0069482317
1.1274116157 -0.0276394337 0.0521774030
0.9183162842 0.0366836863 0.0330190825
0.9675893036 0.1123705945 -0.0081600835
1.0188958218 0.1210598745 0.0349524226
1.0931151471 0.1239812585 -0.0290907899
0.7502666341 -0.0145376958 0.0156053458
0.9113099145 -0.1207978606 0.0610246158
0.9450973451 0.0308117337 -0.0448450409
1.0071101136 0.0965294848 -0.0446834844
0.9291401338 -0.0122557030 -0.0033292828
0.9809384749 -0.1192951180 -0.0324922076
0.7719635445 -0.0967153397 -0.0054023399
1.1119664346 0.0162246324 0.0403906285
0.7735408547 -0.1255290632 -0.0240316600
0.9346495064 -0.0225052013 0.1290095368
0.9149165620 0.0522479559 0.0791153290
0.9029309769 -0.1057816899 0.0499336072
0.8938077741 -0.0424469928 0.0715548865
0.7597569145 -0.0635856754 -0.0266290940
0.9810878937 -0.0626010072 0.1194467982
0.9412406158 -0.1164513631 -0.0205130590
0.8062114752 -0.1311239866 -0.0428992534
0.9969239826 0.0972133443 0.1252646534
0.9359821575 -0.0431070786 0.0127535281
0.7565664228 -0.0271730482 0.0368500467
0.9440571357 -0.0793479562 0.0882100746
0.7564753062 -0.0383065433 -0.0423737143
0.8482558760 0.0330118288 -0.0434304168
0.9969618744 0.1188533286 -0.0230633998
0.9061018599 -0.0978958100 0.0974083011
1.0886832016 0.1346938857 -0.0013220893
0.8770263825 0.0212362218 0.1151542674
0.7822723705 -0.1418327611 0.0255741455
0.8818983560 -0.1221461143 -0.0427135487
0.9419583876 -0.0706148160 0.0468973478
0.9370814074 0.1030846137 0.0996157278
1.1335988878 -0.0823418080 0.0064192623
1.0324414648 0.1118993139 0.1253458096
1.0608466968 0.0688688401 -0.0449626305
0.8964160664 0.0130811947 -0.0434162473
0.8896455569 -0.0488777244 0.0646651632
1.0172074469 0.1232440914 0.0685499748
0.8209003333 -0.1477258197 -0.0228387830
1.1007290467 0.0962672042 -0.0008566870
0.8126819555 -0.1351988669 -0.0427304297
1.1226469775 -0.0856489390 -0.0358095785
0.7700218354 0.0367845494 -0.0334581267
1.0973923307 0.1093203836 0.0083794536
1.1153588650 0.0256060872 0.0483086530
0.7362901519 0.0524415549 -0.0365672538
0.7610755896 -0.0475669633 -0.0121228671
0.9797569283 -0.0527796849 -0.0449913296
0.8894678238 -0.0397465855 -0.0331869143
1.1152470935 0.0274423730 0.0298205267
0.9266861469 0.0785173360 0.1202050075
1.0871794181 0.1288529789 0.0415236983
0.7705387049 -0.0902910561 0.0034419299
0.7757155266 -0.1262833316 -0.0422388243
0.9855776618 0.1163545256 -0.0080229898
1.1315431222 -0.0523173441 0.0933824279
1.0951077917 0.0098404665 -0.0441658688
1.0920739969 -0.0786481306 -0.0441511961
0.8990699565 -0.0358756480 0.0447941023
0.9651300299 0.1118372046 0.0025098329
0.7617343490 0.0077615928 -0.0429862372
0.8175782885 0.0543597882 -0.0336050619
1.0445060532 0.1283139217 0.0313087796
0.8629182532 -0.1376331137 -0.0415059605
0.9380847458 -0.0526247685 0.0058477766
0.7556954017 -0.0352961796 0.0268500347
0.9928795571 0.1146531620 0.1093400241
0.9077910982 0.0841130755 0.0189253576
1.1140548944 0.0363946427 0.0069285819
0.8467543004 -0.0279338601 -0.0433602706
1.1216132848 -0.0028127690 0.0824272875
1.0866454236 0.1312126500 0.1185284267
1.0448470962 0.1012124808 -0.0448036581
1.0756767989 -0.0882142863 0.1239013769
0.8516625252 -0.1076039202 -0.0331746433
1.0048372450 0.1205554167 -0.0272314035
1.1239569732 -0.0851668925 0.0271805909
1.0992024431 0.0205607488 0.1183965278
1.1216619493 0.0018453342 0.0141880631
0.8794613592 -0.0470113265 -0.0331777017
1.0087550322 -0.1132884808 0.0040912474
0.7566381080 0.0545706925 -0.0022482727
0.7449548431 0.0032600232 -0.0216438028
0.9000077685 0.0609879074 0.0415794028
1.1110910498 0.0490759837 0.0687486062
1.1122247391 0.0218964293 0.0419934271
0.9174246063 0.1009515023 -0.0352155465
1.0108420625 0.1212477182 0.0522862459
0.8544745016 0.0758396215 -0.0125747173
1.0183709823 0.1236200649 -0.0058432138
0.8218315034 -0.1474911836 0.0003817871
0.8316376893 0.0718196731 0.0116472510
0.9480985820 0.0355038790 -0.0450205554
0.7772033753 -0.0908200467 -0.0330667905
0.9837311269 0.1157741946 0.0672116492
0.7661507149 -0.0838933885 0.0227756795
1.1025998104 0.0854758170 0.0574149983
0.9297150821 -0.0148173530 0.0083465214
0.8407847330 -0.0115290448 -0.0332041295
1.0781075362 0.1315839601 0.0439596543
0.7762229332 -0.0105143676 -0.0432785707
0.9022761863 0.0907619684 -0.0189990169
1.0676462857 -0.0965021214 0.1119720541
0.7372300374 0.0503487155 0.0285942374
0.8920821127 -0.0529010603 0.1010936908
0.8804385197 -0.0080361508 0.0842862400
0.8602250557 -0.1390198952 -0.0216615239
0.9131017181 0.0602239901 0.0106758868
0.9392591827 0.1061060399 0.0005072090
0.8017271631 0.0632239912 -0.0315353521
0.9083527486 -0.1081463197 0.0456234944
0.9322274245 -0.1228464944 0.0601727278
0.8626755942 -0.0388797466 -0.0331808489
0.8842197701 0.0864186296 0.0485590605
0.9053748714 -0.1013244940 -0.0332753406
0.8659006416 -0.0206923595 0.0870764794
0.9180463429 0.0381263859 0.0869305635
0.8937052981 0.0334597207 0.0416110239
0.9194462045 0.0317392853 0.0644019937
0.8844549242 0.0824940421 -0.0125777007
0.9066252535 0.0889928247 0.1122468464
0.9694513458 0.0857788015 0.1186701053
1.0424135737 -0.1058537415 -0.0113366085
0.8966309198 -0.0779994399 0.0785246237
1.1008426134 -0.0665693352 -0.0441742024
0.9629064805 0.0938083998 -0.0444260741
0.9082285013 -0.1075036869 0.0754703554
0.7585945808 -0.0362673813 0.0278229894
0.9481537537 0.1071712902 0.0803340592
0.7998959532 0.0632928802 -0.0226402636
0.8871778353 0.0425364661 -0.0434452514
1.0210868426 0.0613611215 0.1196051879
0.7472958198 0.0560493706 -0.0011277126
0.9502569575 -0.0071891696 0.1194007166
0.9949636915 -0.1144319998 0.0902942880
1.0892047264 0.1345908341 0.0724599564
1.0951183724 -0.0808731711 -0.0440021606
0.9610119720 -0.1078584247 0.1255705307
0.7579305003 -0.0332784065 0.0250450185
0.8731139793 0.0508197894 0.0488945307
1.1314282045 -0.0428188452 -0.0199523211
0.7871153722 -0.0387249454 -0.0433258145
0.9052125456 -0.0938814256 0.1011822741
0.9114134868 -0.1210784351 0.0506299156
1.0013747927 0.1198541077 -0.0091174928
0.9628349055 0.0430016247 -0.0450891531
0.9382344561 -0.0530438392 0.0909342459
0.9428663783 -0.0871176029 0.0416721220
1.0954441046 0.0935810380 0.0409176064
0.9472523427 -0.0937201100 0.1251439088
0.7651354523 -0.0853534427 -0.0018797059
0.9950126075 -0.1160671280 -0.0366486580
0.8187582364 -0.1141260026 -0.0331587528
0.9234152531 0.0138977311 0.0929530689
0.8684189006 -0.1335814533 0.0045562145
1.0525440705 -0.1000360782 0.1097883180
1.0307260811 -0.0219928033 -0.0450312403
0.9800758539 -0.0425108418 -0.0450034597
0.7898794259 -0.0945276320 -0.0430704727
0.9026691143 -0.0306706524 -0.0433732244
0.8072460891 0.0696568113 0.0115872349
0.9202660304 -0.1254679852 0.0872405866
0.9124182651 -0.1272298206 0.0663344344
1.0784311800 -0.0754275981 0.1219564018
0.9440615940 -0.0793182118 0.1091582944
0.8484697547 0.0017471631 -0.0433973001
1.0841916141 -0.0863443365 -0.0440334191
0.8772551659 0.0323844820 0.1036998164
0.7532370850 0.0540543392 0.0034853116
0.9283222550 -0.0082514084 0.1010291320
0.9599223711 0.0322254336 -0.0450731733
0.7795965546 -0.1237714498 -0.0326890716
0.9421852192 -0.0709807053 0.0597453470
1.0103372555 0.1187289916 0.0447821752
1.1236572973 -0.0069803761 -0.0079190022
0.9134928414 0.0584774087 0.0186492497
0.7668763546 -0.0737759488 -0.0049290730
0.7875680018 -0.1538207280 0.0252581806
0.9056566375 0.0946897419 0.0901471314
0.9757911814 -0.0199232163 0.1197441248
0.8813870130 -0.0127606560 0.0702823795
0.7930629581 -0.0734819898 -0.0331274894
0.8201085616 -0.0030935243 -0.0433814215
1.1030641780 0.0185945215 -0.0437943208
0.9612193378 0.0976394643 -0.0442787476
0.7361078768 0.0479386641 -0.0109307749
0.8938571938 -0.0621493691 -0.0433429035
0.9079595901 -0.1200782774 0.0890051162
0.7705067480 0.0615591710 0.0054955539
0.8996741283 0.0901242553 0.0725551765
0.8953985837 -0.0046187160 0.0447418303
0.7571492425 -0.0297508617 0.0251362114
0.7713220890 0.0061548127 -0.0432624631
0.8722367695 0.0840824563 -0.0007235973
0.7515203590 0.0543679970 0.0197642410
1.0067648329 -0.0127951374 -0.0450382303
0.8999521562 -0.0821159128 0.1100032645
0.8165671587 0.0357989954 -0.0434205727
0.8576184800 0.0800623954 0.0235370855
