1.1000093731 -0.1182807987 -0.0449046752
0.8885729859 0.1135551073 0.0332828561
1.1546778162 0.0234341566 -0.0115147619
0.7726299764 0.0396678117 -0.0397393055
0.9092394633 0.0324065661 0.0619787642
0.8475423157 -0.0410538394 0.0973373616
1.1698468282 -0.0403998698 -0.0487735676
0.8659991330 0.0918791201 -0.0594613990
0.9018702178 0.0792555489 -0.0588334135
0.9904859286 0.1125951557 -0.0754152024
1.1433026858 0.0596668392 0.1277426902
0.8062675609 0.0339711925 -0.0641803520
1.1470379606 0.0592395221 -0.0276360203
0.8886066913 0.1091931854 0.0510681319
0.9922235175 0.0600672689 -0.0756271321
1.0730254399 -0.1037839010 -0.0731744878
0.8120632668 0.0884331781 -0.0321862842
1.1350529733 0.0942066535 0.1484455722
0.9596777906 0.1056597551 0.1544624527
1.1006633952 -0.1144643119 0.1071777973
0.7981172884 -0.0737849090 -0.0186172178
1.0931936976 0.1615880233 0.1199007791
0.9010017793 0.0839909801 0.1040115952
0.8283554444 -0.0406600946 -0.0610290253
1.1745519353 -0.1016181396 -0.0468202732
0.9443223453 -0.1056814608 0.0682406249
0.9005996950 0.1011489459 -0.0441183221
0.8899506551 -0.1287737936 0.1024224865
0.8201183215 -0.1490730168 -0.0640679219
0.8202244326 -0.1590135924 -0.0040949313
1.1352929683 0.0670774670 0.1538431476
0.9504471043 0.1321398948 -0.0563661909
0.8913016051 -0.1220314412 -0.0640655002
1.0604597194 -0.0149169690 -0.0744485953
0.9325001119 0.1283420827 0.0099993459
0.8564924151 0.0026893651 0.0573392111
0.7992620062 -0.0688112502 -0.0640218663
1.0827046209 -0.0590345867 0.1469419874
0.9976930771 -0.1381734103 0.0897532665
0.9407640359 -0.0836529339 0.0090124599
1.1101344179 -0.1064618645 0.1486500457
0.8444355721 0.0529963206 0.1331078463
0.9982795301 -0.0122993699 0.1465189279
0.9198041935 -0.0157150917 -0.0650949512
0.9057475077 0.1220717906 0.0205968166
1.0682167280 -0.0178914334 -0.0742890739
0.7841252645 -0.0116077080 -0.0359088814
1.1074398980 0.0618523146 0.1484729951
1.1683606324 -0.0426342571 0.0359347971
0.9709558932 -0.1188009771 -0.0768371821
0.8352914492 -0.0283520059 0.0924934981
0.8138788516 0.0899032043 -0.0592219002
0.8147319774 -0.0006162797 -0.0611515897
1.1696351340 -0.0398890855 -0.0446187101
0.8191276890 -0.1519578790 -0.0531107513
0.9480859508 -0.1135730923 -0.0177431391
0.8824245797 0.1042291505 0.0167553393
1.0441291004 0.1244058528 0.1564773489
1.0894480289 -0.1112243012 0.0448860805
0.7890363678 -0.0009835567 -0.0617598505
0.7914990314 -0.0441714641 -0.0105586201
0.7813045249 0.0165289882 -0.0453493155
1.0685022641 -0.1249011409 -0.0259874120
0.8902207263 0.1059476043 -0.0289505631
0.8609828683 0.0044486362 0.0614496203
0.9218146383 0.1234659788 0.1100335101
0.9101952349 0.0255181328 0.1534362573
1.0154782172 0.1276453853 -0.0734238083
0.8104368844 -0.1140188781 -0.0333953603
0.9000028481 0.0915711745 0.0645548094
1.0439411292 0.1228527617 0.1468782758
1.0410099351 0.1526428158 0.0123016446
0.8313482001 -0.1696787894 -0.0455148195
1.1514265503 -0.0555034562 0.1484057562
0.9613557939 0.1273849051 0.0440623644
0.9351137771 0.1248442714 0.0332154775
0.8730597484 0.1060212615 -0.0521628863
0.8567471556 0.0563527348 0.0555199899
1.0924312915 0.0438738093 0.1483487263
0.9341932712 -0.0669526904 0.1121419577
1.1528166750 0.0073758736 0.1543365237
1.1540893951 0.0106537444 0.1357812454
1.0352315165 0.0904837812 -0.0745260667
0.8810866203 -0.0917508290 -0.0640887142
0.9540225453 -0.1144299368 0.1476362535
0.8746504716 0.0083828890 -0.0640959977
0.9697272075 -0.0536004136 -0.0766567642
1.1549640366 -0.0062074191 0.1553172922
1.0327414391 -0.0929909548 -0.0754275724
0.9250630210 -0.0508261855 0.0438330257
0.8529182509 0.0314607709 0.0553353835
0.8373818602 -0.1661396501 0.0132883633
0.7839096277 -0.0099346305 -0.0014089792
0.9501472095 -0.1034705126 0.1436865306
0.8572061385 0.0675148184 0.0609720380
1.0076229776 -0.1070896440 0.1450068227
1.0284901392 -0.1110009240 0.1548143627
1.1109524064 0.0968282757 0.1483991309
1.1519167418 -0.0993418610 0.1445065088
0.9161955093 -0.0000422242 -0.0655488216
1.0214184447 0.1479757039 0.0227593001
0.8614319075 -0.0663779774 -0.0641208732
0.9408653599 -0.0069471560 0.1454120786
0.7944771239 -0.0420199331 -0.0519525194
0.9021096685 -0.1475473002 0.0659516876
0.9110777780 -0.1498829898 0.0640130023
1.0484946464 0.1001428393 0.1468332418
0.9510206651 -0.1501907596 0.0127088165
1.1310583383 0.1162000279 0.1100075952
0.9886394182 0.1032573850 0.1454629892
0.9708827015 0.1366846948 0.0208611971
0.8517486926 0.0170953258 0.0904331526
0.9814206369 -0.1446271278 -0.0373412608
1.0892533835 -0.1096594493 -0.0687498565
1.0974261554 0.1633609970 0.1013387859
1.1585465524 -0.0212795744 0.1550550711
0.9253841661 -0.0267411728 0.0621866242
1.0987897021 0.0132010380 0.1483562824
1.1634261803 -0.1018898528 0.0752097278
0.8743697527 0.0319856717 -0.0596841864
1.0575476572 -0.0510667589 -0.0746769195
0.7840846140 0.0467072778 -0.0641657951
0.8708851934 -0.0402043289 0.0698783035
0.8580857507 0.1013497948 0.1079677895
0.7894800185 -0.0231399637 0.0212102686
0.9331540435 -0.0595574966 0.1037398136
1.0884975668 -0.1187666055 0.0711021107
0.9508071844 -0.1223492367 -0.0517766691
0.8344020482 -0.1634804638 -0.0007617226
1.0198758080 -0.1256904568 -0.0701706342
0.9202736400 -0.1156315612 0.0615424056
1.1616974097 -0.1025631006 0.0684277962
1.0497442733 0.1523137594 0.1088387679
0.9569814803 -0.1230842758 -0.0770974977
1.0333757488 -0.0709701560 -0.0753102553
1.1185018647 0.1668685764 0.1294609047
0.8937393564 0.0932290674 0.1360724649
0.9277590192 -0.0211688364 -0.0336971051
0.8904677305 0.1093005069 0.0453782869
0.8204219379 -0.0086462528 -0.0641660255
0.9161557138 0.0164288154 0.1030969866
0.8989640040 0.0766256659 0.1285942151
0.9165379006 0.1200922764 0.0472144525
0.9089748278 -0.0018336064 0.0564325465
1.1474547428 -0.0792725402 -0.0727724880
0.9838646471 -0.1419199753 0.0748385860
0.9377787250 -0.0707800368 0.0133364194
0.8918205046 -0.0163900651 0.0613578386
0.9435716109 0.0196825653 -0.0769046405
0.8340866382 0.0115857435 -0.0606676706
1.0788317524 0.0281252274 -0.0738434877
0.8756122038 0.0441124119 0.0558773795
0.8835183069 0.0230210556 -0.0640717301
0.8896214480 -0.1384645866 0.1373033939
0.8855663649 -0.0663902388 -0.0598864428
0.9284719940 -0.0563897382 -0.0693985638
0.7826010295 -0.0037290242 0.0126098928
1.0597682708 -0.1244004387 0.0884924798
1.1562947425 0.0072930567 0.0737238329
0.8082138644 -0.1033302959 -0.0535332591
1.1445982788 0.0679631763 -0.0069352849
1.1369065981 0.1007440578 0.0080717079
0.9608704128 0.0792250504 0.1447680440
1.0394673254 0.1359561314 -0.0716979326
0.8827067520 -0.1174722041 0.0793823152
1.0147680367 -0.1363999680 -0.0054779032
0.9635751097 -0.1486772354 -0.0402121084
1.0067885244 0.1378873866 0.0384905524
1.1222243546 -0.0743405679 -0.0733371878
0.8300859844 0.0924899622 -0.0469922524
0.7931218554 -0.0505872938 0.0158844736
1.1616951908 -0.0038488432 -0.0502475199
0.8498782699 -0.1629164704 0.0171947337
0.8961120118 0.0861533065 -0.0742273230
0.9563691596 -0.1476929827 0.0822617000
1.1775375932 -0.0922980702 0.1193337439
1.0740334791 -0.0439692181 -0.0742767614
1.1202587383 -0.0358489348 0.1481435574
0.8724075347 -0.1583784852 -0.0314125570
0.8976258624 0.1024843509 0.0736333196
0.9115932450 0.0453752397 0.0192186624
0.8043563522 -0.0895752841 0.0217017301
1.1382236827 0.0984946944 -0.0266755091
0.8744840167 -0.1572648806 0.0055242797
0.9081409887 0.0317976712 -0.0643995952
0.8609302034 0.1027223130 -0.0120830303
0.9145322706 -0.1487942898 -0.0106750541
0.8523762042 0.0685364576 0.0609455767
1.1576008982 -0.0054446918 0.1396746529
0.8912357471 0.0975104936 0.0517299689
0.9588430442 -0.1456645876 0.1157670570
1.0211461012 0.1491887318 -0.0293668532
1.1613593375 -0.0040131761 -0.0343197273
0.9010512190 0.0580083911 0.0395195930
0.8766257694 -0.0324869738 0.0609629545
1.1008303376 -0.0800383919 0.1471491593
0.8452436208 0.0491997846 0.1323431304
0.9893300569 -0.1399595390 0.0914923699
0.7722948341 0.0561277187 -0.0284495258
1.1507054889 0.0460362540 -0.0579671135
0.7691064650 0.0576271572 0.0249529702
0.9062051409 -0.1501944279 0.1030910032
0.9959768103 -0.1375778502 0.1118918885
0.9422370067 -0.1175926658 0.0320995297
1.0717749684 0.1580112123 0.0917162047
1.0049489897 -0.1165095190 -0.0759085818
0.8748924430 0.1025186697 -0.0256237908
0.9215370216 -0.0165867481 0.0287164892
0.8478677955 -0.1604620759 -0.0254014331
1.0132409807 -0.1344814095 0.0305982596
0.8563885671 0.0216273572 0.0979191097
0.8111743685 0.0882336736 -0.0396649444
1.0362412072 0.0210870861 0.1476034092
0.8558452138 0.1015327942 -0.0146864991
0.9308794930 -0.0979699893 0.0618569142
0.9371969794 -0.1032770814 0.1389658933
0.8701447002 0.0549355534 0.0558056998
0.8967172034 0.0112191295 -0.0640322887
1.1244312168 0.1324669034 0.1543181581
1.0999139955 0.1189427859 -0.0729465826
1.0280028986 0.1040410696 -0.0746266707
0.8195865601 0.0201393018 -0.0641758844
0.8494649101 -0.0225622684 0.0939611313
0.8947811709 -0.1535178410 -0.0466910023
1.0315869340 0.1141715456 0.1464986895
1.1231205035 0.1635263321 -0.0035738449
0.7752661820 0.0577623889 -0.0641539334
0.9158116100 0.0263387031 0.1532571081
1.1161363009 -0.0150649375 0.1484284232
0.9060767142 0.1224981257 0.0065340385
0.8423351362 -0.1400284618 -0.0641162567
1.1422998345 0.0048985000 -0.0725247934
1.0929089557 -0.1192105542 -0.0162701591
0.7962754079 -0.0656221553 -0.0210426187
1.0478028616 0.0007533261 -0.0746612199
0.8513368206 -0.0118796988 -0.0641404694
0.8904887149 0.1175762495 0.0825465319
0.8300141097 0.0929500404 0.0188143211
0.8134262899 -0.0566465097 -0.0641322413
0.8418849602 0.0871759666 0.0900289071
0.8227130685 0.0732469840 -0.0606372238
0.8721390459 -0.0741990332 0.1115396663
0.9380052210 0.1275086469 0.1009567828
1.1421321451 0.0789010323 -0.0062385353
0.9431401334 0.1277284002 0.0504046007
0.7914852553 -0.0447260109 -0.0462427728
0.8176171647 -0.1465390616 -0.0222157279
0.8780087534 0.0848229584 -0.0593582128
0.8753854699 -0.0127951696 0.0610000330
0.9245138593 -0.0194776117 0.0900012400
0.8543735048 0.1012272560 -0.0179665771
1.1672246186 -0.0326481341 -0.0110155518
0.7876165599 -0.0270308884 -0.0232183096
0.7863940935 -0.0104105370 0.0304853893
1.0295830798 0.1481627873 0.0999484090
0.9327612909 -0.0592187959 0.1087058167
1.0727732284 -0.0583846834 0.1467695540
1.1582402174 -0.0097869812 0.1502225063
1.1297317503 -0.1110412920 -0.0515457910
0.9720459325 -0.1220144589 -0.0766953984
1.1405637967 -0.0557348643 0.1481667704
1.0104678982 0.1085998846 -0.0749985233
1.1019209261 0.1655762646 0.0737284367
0.9270821944 -0.0396312904 0.0281721981
1.0401362338 -0.0495693826 0.1463677961
0.8637702998 0.0472301031 -0.0598491351
0.8576673552 0.0871811362 -0.0597455891
0.9436948064 0.0792414083 0.1443507101
1.0612258254 0.1584919367 -0.0506282364
0.8942515598 0.0950608026 -0.0728160924
0.8678763678 0.0287196185 -0.0641099960
0.9185194356 0.0208021572 -0.0405657549
1.0694155091 0.1240544754 -0.0736055949
0.9654080536 0.0070377866 -0.0764776694
0.8795654635 -0.0400348138 0.0555899618
0.9254105461 -0.0106771613 -0.0587695292
0.9258601279 0.1280463755 -0.0402349309
0.8498173710 -0.0365469044 0.0854788208
1.1328912232 -0.1091926254 0.0629496996
0.8618383354 -0.1606743234 -0.0160138148
0.8858035135 -0.1067490587 0.0691332424
0.7730838712 0.0373235267 -0.0573594775
1.1217895837 0.1675764435 0.0146402205
1.0518071396 -0.1224133036 0.1404735983
0.7788111912 0.0280254965 -0.0542111226
0.9415485094 -0.0525436704 -0.0772767931
1.0565159965 -0.0678252934 -0.0747778967
1.0649839416 -0.1193990335 0.1409713790
0.7797685741 0.0088530606 0.0106307634
0.8566497885 0.0226687377 0.0768801159
0.8513863848 0.0241962496 0.0608080248
0.9144470027 -0.0517817421 0.0563092305
0.8461375518 0.0438430024 0.1082865050
0.9052026422 0.0780703960 0.1442187566
0.8309766837 0.0521782761 -0.0605504688
0.9359593486 -0.0597058165 -0.0149468507
0.8756223740 -0.0650632578 0.1049204111
1.1744833624 -0.0594157546 -0.0649425396
0.8933915208 0.1114881700 0.0414465751
0.8909205414 -0.1293561162 0.0640489712
0.8682726761 -0.0884277402 -0.0603673508
1.0855338719 0.1577388334 0.0508566751
0.8985438161 0.0538810669 -0.0590512131
1.0867064048 0.1628030009 0.0163064266
0.9738676656 0.1379253850 -0.0545602428
0.8419191376 -0.1664909823 -0.0385415148
0.7817449590 0.0812830920 -0.0611260204
0.9284227795 -0.0271059715 -0.0046481897
0.8605105612 -0.0378184091 -0.0641258242
0.7839464528 -0.0092463577 0.0202849555
0.9389694356 -0.0330045769 -0.0772462099
1.1243246571 0.1516975376 0.0579891585
0.8622282244 0.0996991547 0.0117724771
0.9017484429 0.0923085153 -0.0077233945
0.9335474159 -0.1447714401 0.0770903463
0.9001434931 0.1017427488 -0.0304065112
0.9706528830 -0.1443798592 0.0854718678
1.0983465211 -0.0774493587 0.1470976932
1.1200223907 0.1638258123 0.1261155255
1.0162114001 -0.1354725238 0.0183095809
0.8526150973 -0.1342145393 -0.0641116160
0.9279634453 -0.0360459436 0.1009377560
0.9179725929 0.0735346942 0.1437483745
0.8784743817 0.0613298591 0.0560196119
0.9602874187 -0.1436513866 -0.0654769269
1.0129427018 -0.1365459745 0.0048731047
0.8228036600 -0.0827109366 -0.0641185198
0.9897445384 0.1313345274 0.1494990951
1.0394027444 0.0966404684 0.1466256914
1.0480607216 0.1483652561 0.0484667398
1.0726348259 -0.1212348569 0.0952890961
0.9341058537 -0.0597203125 0.0234959851
1.0519728015 -0.0414403578 -0.0747580527
1.1775720051 -0.0740179621 -0.0571171084
1.1508503322 0.0377877157 0.0146501194
1.1298626142 0.1347417420 -0.0162361290
0.9743448550 0.1128555911 0.1548308575
1.0253894724 0.1435162684 0.0482885933
1.1316301701 -0.0683723570 -0.0730991946
0.7682197380 0.0595056732 -0.0342441753
0.9318560444 -0.0402197292 -0.0263042543
0.7706342757 0.0645338224 -0.0516430973
0.7783767016 0.0809019023 -0.0520278642
1.0283069412 0.1505429980 -0.0186950786
0.9162915182 0.1258873453 -0.0396738630
1.1719984135 -0.0736716617 0.1531246245
0.9451658828 0.1312481219 0.0074319171
1.1628897114 -0.0165406792 0.0200438896
0.9157096695 0.0243386314 0.0219935664
0.9253241404 -0.0421523961 0.1537122848
0.8140161052 -0.1439750118 0.0132599160
0.9281976792 -0.1424738855 0.0001370354
0.8023193849 0.0862586697 -0.0131958105
1.1617924036 -0.0033102432 -0.0595062151
0.9998742102 -0.1298726654 0.1483247309
0.8111882262 -0.0616821296 -0.0615132026
0.8721565868 -0.0485968727 0.0961206855
0.8536676175 0.1015081375 -0.0490751761
0.9110064913 0.0242226175 0.1270868335
0.8568470314 -0.0257525425 -0.0641326191
0.9825651493 -0.1400988062 0.1219502988
0.9222573580 -0.0104252640 0.0997299422
0.9488546993 -0.1259274815 0.0671564968
0.8487802260 0.0316665213 0.0840167832
0.8821652067 -0.0933745616 0.0969206169
0.9171674285 0.0626064340 0.1437930710
1.0420779951 -0.1276740428 0.0318257290
0.8971097094 0.0688169901 0.1445487816
0.9092669295 -0.0499419019 -0.0640114086
0.9167542695 -0.0030279643 0.1539531757
0.9116744864 -0.1321364442 -0.0595983937
0.9189378808 0.1245248650 0.0552016203
0.8691658789 -0.0340240873 0.0845522841
0.9067873563 -0.0054768695 -0.0639993216
0.8880958813 -0.1406904271 0.1315963430
0.8988107374 0.0962507534 0.0811577183
0.7852266102 0.0127150855 -0.0640919342
0.8907602641 0.1007779432 0.0483107304
0.8448548964 0.0539185291 0.0597864786
0.9306570265 -0.1253290547 -0.0639819310
1.1491086850 0.0448049969 0.0218845896
1.0315769950 -0.0324429909 -0.0751737008
1.0411350201 -0.0491164751 -0.0750355497
1.1234030790 0.1467416958 0.1445022204
0.8834962897 0.1081656529 0.0957871766
1.0364092293 0.1488740305 0.1186031828
0.8634092409 0.1029551123 0.0088566897
0.8023114184 -0.0781199661 -0.0242679231
1.1666342505 -0.0348559249 0.0352648999
1.0743832948 -0.1194541983 0.1259062059
1.1250352013 0.1418394963 0.1220023368
1.0143536205 -0.1148097210 -0.0755074995
1.0109478548 0.0102271034 0.1470880190
1.1490978941 0.0309000969 0.1505316873
0.8687217383 0.0609427398 -0.0596753251
0.9520430566 -0.1460689140 0.0322668870
1.1502527244 0.0300402341 0.1143095766
1.1377604403 -0.1082060253 0.0227246689
1.0836307549 -0.1192383172 0.0850377976
0.9144884862 0.1217721904 0.1109886875
1.0410199750 -0.1294934836 0.0280997266
0.8740988995 -0.0814944587 0.0755064165
0.8688181015 0.1039142638 0.1023429718
1.0203376843 0.1081199589 -0.0747796147
0.9194081353 -0.0209764783 0.1359467597
0.9021879507 -0.0344445636 -0.0593721801
0.9033153847 -0.0696748777 -0.0595063202
0.8802387698 0.1030443203 0.1013829474
0.8687987250 -0.0363179057 0.1145226064
1.1208684257 -0.1119130795 0.0250944320
0.7862538098 -0.0080975686 0.0093501880
0.8695622498 0.0696039212 -0.0641037125
1.1455652131 0.0660782271 -0.0301350499
0.8380141188 -0.0507929814 -0.0608604620
0.9118167969 0.0139333782 0.1536119018
0.8519609445 -0.0733126777 -0.0641321572
0.9249041519 -0.0354549014 0.0620635234
1.0320788043 -0.1025522414 0.1551679162
0.8727053465 -0.0504841152 0.0908176181
1.0896409334 0.1607688310 0.1203229905
0.7888817257 -0.0305900657 -0.0639320514
1.0798217417 -0.1222538761 -0.0210845662
0.8199427011 -0.1554573266 -0.0582842882
0.7973592818 0.0895121223 -0.0485204801
1.0936132844 0.0236833573 0.1483316606
0.9013124377 0.0975800896 -0.0398724679
0.9870143148 0.0027330813 0.1465261047
0.9096672853 0.0539496870 -0.0774986894
0.9513706311 -0.1339836703 0.0208821888
0.7725393800 0.0561490425 -0.0548366832
0.8833913701 0.0058610562 -0.0640752482
1.1191022773 0.1696099361 0.0696589167
0.8901158518 0.0877681471 -0.0640335769
1.0820968451 0.1545747581 0.0404632757
0.8111326823 -0.1323008209 -0.0414304945
0.9819610478 -0.1387754038 0.1362847673
0.9784944427 0.1338767861 0.0485143755
1.1527548628 0.0203528152 0.1000580611
1.0684153576 -0.0238070343 0.1474905512
0.8641017039 0.0831853471 0.0558048414
0.9145966243 -0.1455180852 -0.0053178357
0.8645533295 -0.0905663739 -0.0604581871
0.9893808254 -0.0337785496 0.1458301350
0.9286274122 0.1198826385 0.0430263715
1.0694407555 -0.0106431239 -0.0742292469
1.0682266580 0.1139641561 -0.0736802870
0.8991879983 -0.0717937178 -0.0640480077
0.7800106699 0.0217634774 -0.0312228388
0.8444048245 0.0993878580 -0.0523527973
0.8899887379 -0.1486306289 0.1279493707
0.9339625574 -0.0613161634 0.0626588081
0.8592094731 0.0114084630 0.0751921046
0.7755596490 0.0422639839 -0.0463608330
0.9343258329 0.0319619985 -0.0770531860
0.8617636992 -0.0305591420 0.1077432085
0.7874288666 -0.0264620176 -0.0400309508
0.8833817545 0.1068460252 0.0204372696
0.8739391072 0.0339859421 -0.0640965431
0.9384720940 -0.0796118465 0.0685716299
0.9587123085 -0.0637169331 0.1445520570
1.0306669783 0.1502290938 0.0159794755
0.8879503442 0.0456071575 0.0561589987
1.0607594239 -0.0269585082 -0.0744963382
1.0354795969 0.0402644860 0.1472662942
0.8629839142 0.0287000323 0.0609323672
0.8105061192 -0.1293596575 -0.0325311216
0.9066267026 0.1236904078 -0.0385307073
1.0798747155 -0.1228351923 -0.0479968759
0.8552383974 -0.0332993887 0.0856170800
0.9275978206 -0.1464728623 -0.0466577861
0.9302971965 -0.0235250040 0.1449781114
0.8818105627 0.0502356749 0.0614400333
0.9802608951 0.1383604344 0.0565434883
1.0718259087 0.1292575274 -0.0735224376
1.1596336368 -0.0739730269 -0.0724832160
0.8910936184 0.1161993181 -0.0619540861
1.0603230410 0.0648586503 -0.0740843852
0.9064698892 0.0762285883 -0.0550957518
1.0671338187 0.1586201173 0.0077279673
1.1391155215 0.0777575705 0.1335199600
0.9467175230 -0.1072402265 -0.0198989529
0.8967705906 0.0997343576 0.1123383894
0.8207095907 -0.1599057481 -0.0313269858
0.9469880786 -0.1441196842 0.0016038190
0.9350642947 0.0041567371 -0.0771646402
1.0411915244 -0.0256080683 0.1469574554
1.0553148275 0.1544308772 0.0888924541
0.9409590089 -0.1343418269 0.1512110006
1.1095477077 0.0305441122 0.1484487235
1.0024845980 0.0000799077 -0.0756796442
1.1250236005 0.1598800247 -0.0496434620
0.8105516333 0.0881057980 -0.0073159392
0.9223976974 0.1206838047 0.1394206965
1.0361117530 0.1500488866 0.0902619685
1.1560429864 -0.0322859689 0.1487405383
1.0628784674 0.1583116982 -0.0190755125
0.9300672790 -0.0691473870 0.1532766226
0.8971369842 0.1147801384 0.1393225131
0.9812673815 0.1389677399 0.0605212139
1.1171619847 0.1419314476 -0.0724360087
0.9092179009 0.0631748344 -0.0482379954
1.0410594795 -0.1312705425 -0.0359146461
0.9886514845 -0.0615277608 0.1451489943
0.8556076513 0.0221095746 0.1160990884
0.9146408296 0.0066497684 -0.0664143071
1.1501345241 0.0396662742 0.0272035736
1.0682337160 0.1450697898 0.1537243945
0.9038511712 -0.0290843542 -0.0640245585
1.0915384738 0.1561023616 0.0464564477
0.8781395896 -0.0966890819 -0.0640931335
1.0466202518 -0.0602987554 -0.0749640020
1.0204274099 0.0907454460 0.1461814349
0.8566257226 -0.0389351293 0.1016027348
1.0641301455 -0.1174188109 0.0390991518
1.1199128152 -0.0822672666 0.1499299723
0.8535443523 0.0977415218 0.0006572692
0.8317075639 -0.1640969465 -0.0166709472
1.0201534256 0.1426503546 0.0366549384
0.7988628780 -0.0775806702 -0.0457264487
0.8688528001 -0.1557541750 -0.0043882928
1.0323196593 -0.0886052893 0.1455591752
0.8310135695 -0.1642436248 0.0022837972
1.0205618926 0.1487200931 -0.0151626891
0.8426872977 -0.1502076435 -0.0641096221
0.9353650463 -0.0684890629 0.0954711444
0.8579163391 0.0142019959 0.1032418379
1.1322033304 0.1254391622 -0.0271841868
1.1428636370 -0.0679968123 0.1481390119
0.9094069750 0.1244320203 -0.0539401072
1.0546686187 0.0281707947 -0.0743816553
0.9064627289 -0.1510116899 -0.0446900111
1.1479317385 0.0427923841 0.0914494654
1.1438757038 0.0553804274 0.1439441704
1.1207286414 -0.1121503335 0.0173867298
0.8370359399 0.0883599777 0.0922142897
0.9239692150 -0.0235341958 0.1151150817
0.8940085090 -0.0980353219 0.0610222498
0.8195580320 0.0526220957 -0.0607989245
0.8557806561 0.0975782332 0.0928011735
1.1734482119 -0.0593117080 -0.0217550015
1.1711340900 -0.0532459683 0.0190577872
0.9894761641 -0.0156453944 0.1462749962
0.8875736012 0.1101861844 0.0990516967
1.0206636081 0.0770349129 0.1463380431
1.0251186503 -0.0687057284 0.1456556504
0.9326766079 -0.0815480325 0.1373563316
1.0363852023 0.1503642849 0.0314957330
1.1288140989 0.1241939148 0.1293735794
1.0874600274 0.1514924670 0.1532316225
0.9917619049 0.1187620975 -0.0753089694
0.9553644584 -0.0900645104 0.1438972168
1.1641028787 -0.0296490326 0.0935795262
0.9169702056 -0.0965788273 -0.0640074953
1.1086047851 0.0613931681 -0.0730182377
0.9600562103 0.0149771158 -0.0765600012
1.0653762504 -0.1219180893 0.1163020165
1.0338266941 0.1508212039 0.0206426488
0.8093653344 -0.1093324693 -0.0310239069
1.0690568220 0.1412914763 0.1554162727
0.9232175145 0.0433743728 0.1442151072
1.1495947772 0.0068545193 -0.0723530020
1.1368056010 0.0918527925 0.0973316854
1.0977942474 0.1590481091 0.0489608472
1.0078969245 -0.1370233700 0.0255800347
0.9854031447 0.1398572913 0.0244258377
0.9407159094 -0.0420433336 0.1447386960
1.1275121075 -0.1112828375 -0.0082638425
0.8036551394 0.0657631504 -0.0610912051
1.1694929081 -0.0579836676 0.1343577654
0.8962665180 -0.0470884794 0.0613152811
0.9202629997 0.1191171390 0.1418948274
0.8602142297 0.0076783837 0.0663053297
0.9864454277 0.0040199158 -0.0760215074
1.0959724610 -0.1089573171 -0.0678416687
1.1117417324 -0.0162047719 0.1483722900
0.7910018709 -0.0424922187 -0.0394216785
0.7909955135 -0.0279873154 -0.0136791267
1.0667774025 -0.1237592979 0.0675358105
1.1383119191 0.0803102106 0.1430971154
0.7648202655 0.0744672618 -0.0531064374
0.8897955632 -0.1475704377 0.1064944178
0.7684192251 0.0714613148 0.0131204739
1.1362290241 0.0895471987 -0.0722709488
0.7775136145 0.0187422921 0.0041122039
1.0322237280 -0.1135856712 -0.0739219587
1.1581581059 -0.0349010983 0.1526397960
1.0247285066 -0.0218165977 -0.0752793710
1.0397792858 0.1000886633 0.1466228150
0.8973534205 0.1076734533 -0.0330963156
0.9373291907 -0.0743996171 0.0676203058
0.8120942171 -0.1223846161 -0.0117554424
0.9124344993 -0.1053132137 -0.0594632388
0.8860232919 -0.0304342267 -0.0640744180
0.8630288023 -0.0351754092 0.0806351046
1.0619846980 -0.1119942493 0.1522664989
0.8264727696 -0.1062191240 -0.0641110748
1.1394013697 -0.0822296557 -0.0729594249
0.7997996083 -0.0336639925 -0.0641080069
0.8694391816 -0.0000585913 0.0609418609
0.9249855255 0.0799027831 0.1439190500
1.1161032689 -0.1108989890 0.1099927986
1.0704083181 -0.0692506738 0.1465438766
0.9949970543 -0.1402067499 0.0185300898
0.8026314012 -0.0215950963 -0.0615200142
0.8623769043 0.0923673793 0.0612364300
1.1803767307 -0.0892179300 -0.0314491972
1.1422350347 -0.1061236026 -0.0557513530
0.9094896450 0.0433646269 0.0620812159
0.8466375098 0.0670489524 0.0798336106
0.7971690441 0.0883346197 0.0003506069
1.0726878476 -0.0202030548 -0.0741996649
0.8843853609 -0.0341583217 -0.0597650315
1.0937893826 0.0053255321 -0.0736116836
1.0578356287 -0.1271977376 -0.0224509854
0.8393739100 -0.1398900268 -0.0612377744
0.8694091376 0.0322900546 -0.0641070854
1.1409069325 0.0148770069 -0.0725116951
1.1142213602 0.1653877125 0.1373541097
1.0834301518 -0.1180863025 0.1120723532
0.7709502332 0.0473829904 -0.0273073284
0.8084391835 0.0911142585 -0.0573745483
0.8487053469 -0.0245793883 0.0865116828
1.1737371181 -0.0947330508 0.1443588716
1.0117805948 0.1459234321 0.0186420590
0.9713888323 -0.1453317122 0.0596477642
0.9324826416 -0.0547625546 0.0872047210
1.1149907042 0.1622630181 0.0408317678
1.0118215904 -0.0557201521 -0.0757219384
1.1241264005 0.1534017570 0.0498608768
0.8715114863 -0.0479154734 0.1120126287
1.0485261765 -0.1298307164 -0.0470038493
0.9846102832 0.0345177666 0.1459947826
0.8788893911 -0.0338097953 -0.0640904185
1.0627630841 0.1564888482 0.0304169463
0.9613254920 -0.1265475923 0.1530936857
0.8714308474 -0.0465535242 0.1066118368
0.9936489099 0.0510783427 -0.0756371619
0.9464510547 -0.0701328388 0.1441768024
0.8188172439 0.0935568819 -0.0448944318
1.1399493446 0.0793735112 0.0824191538
1.0669364562 0.1584412438 0.0132198914
1.1417180615 0.0395182093 -0.0723802785
0.7953139141 0.0617395546 -0.0612959430
1.0525695088 0.1553784699 -0.0532710988
0.8877457864 0.0892460292 -0.0591131476
1.1420106394 0.0606963394 0.1526105387
1.0205965182 -0.0708562310 0.1455263800
0.9070191541 0.0359313226 0.1341364114
1.0624306493 0.1034076954 -0.0738591415
1.1294975354 0.1396131045 -0.0471632863
1.1096092187 -0.0945690124 -0.0726212124
1.1212506512 0.1647192045 0.0650897041
0.8409424997 0.0926897066 0.0690271766
0.8625940766 -0.0855211672 -0.0604790232
0.9428077608 -0.1281837874 0.0387507290
0.8919331814 0.1190642384 0.0172902900
0.8821086042 -0.1562083793 -0.0392239967
1.1359134282 0.0805890092 0.1548017153
1.0586184493 -0.1267857014 -0.0128467037
1.0835476377 -0.1118960076 0.1489659088
0.9033506098 0.0734012074 0.1047280257
0.8811918667 -0.0569700791 0.0555490357
1.0585514498 -0.0242914542 -0.0745335751
0.9120597832 0.0041664193 0.0523139194
0.8013653004 -0.0094104864 -0.0614914406
0.8404784288 -0.1538677923 -0.0638356663
0.7762474633 0.0371447088 -0.0005592836
0.9741632892 0.1082653630 -0.0758032686
1.1754978862 -0.0648146278 -0.0565929500
0.9589658131 -0.1479648906 0.0629715693
1.0115577800 -0.1376270832 -0.0537483006
0.8278234943 0.0205993814 -0.0641734467
0.8149849799 -0.1491084281 -0.0199613808
1.0116412728 -0.0979887121 -0.0759243886
0.8913265828 -0.0648464346 0.0611231760
1.1638054935 -0.0578482106 0.1576621725
0.8464942385 0.0421466821 0.1125647494
1.1144082664 -0.0026499555 -0.0731839139
0.9032023541 -0.0432137346 -0.0640303409
0.8055414200 -0.0507460047 -0.0273990271
1.0890921344 0.1641172607 -0.0158910820
0.9024916421 0.0930049325 -0.0466314014
0.8047673069 -0.0890779410 -0.0245117966
1.1006427216 0.0078544983 -0.0734460308
0.9179084057 0.1209026054 -0.0645066717
1.1402225118 0.0624373796 0.1546047470
0.8655142719 -0.0467904536 0.0930584120
0.8676277650 -0.0828864910 -0.0603571730
0.9063223668 0.0289360819 0.1436555932
0.9027978615 0.0777137805 0.0880093004
0.7988612480 0.0854996308 0.0041781406
0.8676905374 -0.0926737013 -0.0603987477
0.9212537921 0.0621983003 0.1439051081
0.9565161042 -0.0806315932 0.1441167613
0.9605554829 -0.0992875807 0.1438917256
1.0468063288 0.0812457261 -0.0743099991
0.9306130799 0.1173448653 0.1488344882
0.8157761577 -0.1529300800 -0.0405940824
1.0932080054 0.0876541859 -0.0732399187
1.0206543598 -0.1045190659 0.1528039751
0.9417801968 -0.0335430404 0.1449559267
0.8464106584 0.0468582858 0.0599557191
1.1652348362 -0.1032982824 -0.0265063276
0.8626697312 -0.1607672414 -0.0309887590
0.9185156714 0.0178795597 -0.0119602785
0.8909909477 -0.1178570129 0.0554909219
1.1424720695 0.0648464660 0.1136678840
0.7695815337 0.0686619798 -0.0381452012
1.1096808194 0.0720069588 -0.0729445533
1.0510281504 0.0391793736 -0.0744114339
0.9620555429 0.1185384226 -0.0735438909
0.8730511103 -0.0770814808 0.0756718953
1.0201244352 0.1488826847 -0.0261046290
1.0802667053 0.1553689904 0.1446320846
1.1451870087 0.0703259859 -0.0546112308
0.9405007013 0.1311984355 -0.0342426226
0.9166178730 -0.0113385048 0.0390316022
0.9009062543 0.0817771199 0.0266317421
0.9316120847 -0.0683250662 0.1277309214
0.8442811863 0.0663975834 0.1364083659
0.8862902808 0.1050717573 -0.0211650500
1.1495764526 0.0401676016 0.0462097261
0.8767482496 -0.0683902019 0.0894225375
0.8962776002 0.0575926155 0.0617982631
0.8690045696 0.0293846572 0.0556649568
1.1237923277 -0.0914514846 -0.0722328163
1.1236809348 0.1529045984 0.0740102742
0.9131885600 -0.0821695893 -0.0640134189
0.8129889211 -0.1255086822 -0.0308898346
1.0013953886 0.1077670786 0.1457898070
0.8784206786 -0.1063049689 -0.0602230483
1.0834506773 -0.1169796040 0.1331855346
0.9307776815 -0.0358563570 -0.0218806644
0.9536874172 -0.0270335116 0.1453373332
0.9042458704 -0.1508478073 -0.0069705614
0.9438770254 0.0691722475 0.1444151157
1.1060292765 0.1682611601 -0.0503262403
0.9269743645 -0.0633298719 0.0548959406
0.9299314029 -0.1398127822 0.0620734181
0.8389190436 -0.1624669081 0.0009234082
1.0609208238 0.0396069685 0.1479528905
0.9098383508 0.0471747121 0.0793982073
1.0812816210 -0.1112075805 -0.0690610525
0.8836332444 -0.1133809450 -0.0640807113
1.1625740302 -0.0076300761 -0.0516175601
1.0763984233 -0.1144504105 0.1469067156
0.9675010498 -0.0640219687 -0.0767540907
1.1322419048 -0.1104135486 -0.0158386507
1.0920826314 -0.0118385657 -0.0737271015
1.0758496684 -0.1198241120 0.1110103416
0.8637560239 -0.0028205314 0.0554173529
1.1666559559 -0.0594975414 -0.0722747696
0.8047694236 -0.0902575371 -0.0003427949
0.9058614735 -0.0753035994 -0.0594755840
0.8576014319 0.1020284416 -0.0192987318
0.8446877898 0.0770672112 0.0652415175
0.8932957486 -0.1538263270 0.1198850489
1.1182825370 0.1700242129 0.0109157920
0.8340719050 -0.0994756131 -0.0641225775
1.0460588543 -0.1280005275 0.0761602832
0.8516961388 0.1008435681 -0.0349829633
0.8261489636 0.0275272171 -0.0607675068
0.8134460094 -0.1428141173 -0.0539503625
0.8155130685 0.0548629203 -0.0608783996
0.7868161561 -0.0102342483 0.0026926059
1.1202216144 -0.0592481963 0.1477048779
0.9555124528 -0.0752380222 -0.0770708581
1.0030747443 -0.0372290876 0.1459966980
0.8784843580 -0.1536001082 0.0139661218
0.8124626221 -0.1363495177 0.0227816161
1.0998868701 0.1628801473 0.0541797857
0.8794719452 -0.0886747053 -0.0640917831
1.1085680461 -0.1152065453 0.0040297568
0.9745883537 0.1289992827 0.1475808773
0.9294417330 -0.0303534375 -0.0173494003
1.0389046131 0.1526214043 -0.0061951379
0.9830868705 -0.1406357527 0.1076820670
1.1701099709 -0.0601114097 0.1283915329
0.8766501880 0.1017506448 -0.0560099283
0.9058231090 -0.0657192200 0.0614431297
1.0605634372 -0.1175944523 0.1474344325
0.9074995996 0.1221367912 0.0663398626
0.9727007560 0.0874736310 0.1450392064
0.7837448959 0.0378345329 -0.0641446368
0.8787890702 0.0800401052 -0.0640823056
0.9089704255 0.0112988510 0.1535994538
0.9358474994 -0.1444564771 -0.0222143310
0.8452067694 0.0483459702 0.1090103861
1.1463663426 0.0535940313 0.0549166735
0.9499883206 -0.1463012666 0.1343058601
0.7679206334 0.0783927940 -0.0088667902
1.0356200177 -0.0322611812 0.1467000875
1.0733567720 -0.0745774795 0.1465624325
1.1275473143 -0.1110169050 0.0020453599
0.9078440829 0.0230906811 0.0519331912
1.0617489234 0.1354431750 -0.0731921590
1.1397633772 0.0828898021 0.0567381727
0.9132704301 -0.1496884975 -0.0543970616
1.1420562339 -0.0378109542 -0.0727251997
1.1133234290 -0.1090844591 -0.0623856830
1.1811458453 -0.0916403507 -0.0409783279
1.1498610974 0.0367299990 0.0670002843
0.9074157396 -0.1020675467 0.0559166385
1.1309925609 0.1272603731 0.0071166220
0.8553562572 0.0033467637 0.1376737024
0.7772540118 0.0347968021 -0.0491895968
1.0982150864 0.0291256799 -0.0734033427
0.8896749723 -0.1473404185 0.1145448305
0.9009633221 0.0260868785 0.0617523904
0.9050710937 0.0596406753 0.1166654205
0.9591906731 -0.1468730649 0.0865936226
1.1334117230 0.1157553676 0.0138158138
0.8061389113 -0.1094301197 -0.0102473250
1.0792113093 -0.1227881243 -0.0377384061
0.7762091690 0.0245642770 0.0039398372
0.7787157731 0.0810000337 0.0029235795
0.8418256360 -0.1280890599 -0.0611284550
0.7930435968 -0.0507826913 -0.0038761512
0.8719766229 0.0771226182 -0.0640993189
0.9433781139 -0.0107474188 0.1455139754
1.1469563705 -0.1061186293 0.0239910368
1.0725266862 -0.1141060751 0.1489593436
0.9991041185 0.1437131983 -0.0072720343
0.8635482374 -0.0190615700 0.1372544603
1.1079142828 -0.0143100425 0.1483589366
1.0370084283 -0.1279833152 0.0329004901
0.9058115319 0.0342784717 0.0461761824
0.9170769838 0.0590950122 0.1438288326
1.0587097309 -0.0388859823 0.1469572193
1.1241360407 0.1458732113 0.1218292417
1.0197570582 0.0094081947 0.1473324778
1.1235820479 0.1519673999 0.0872112335
0.9678660102 -0.0048437184 0.1461047404
0.7977350601 -0.0336282952 -0.0235117040
0.8099584341 -0.1147924130 0.0253942074
0.8770704035 -0.0947336759 0.1136944651
0.8403625515 0.0722836609 0.0883621166
0.9294671446 -0.0716603365 0.0470497850
0.9558083080 -0.1301382353 -0.0759688904
0.9413434328 -0.0956540509 0.0996641055
0.9001030290 0.0710105399 -0.0589392793
0.8970485813 0.1036592376 -0.0751040089
1.1375692874 -0.1024424814 -0.0634876342
0.9272540203 -0.1421008839 0.1139566292
1.1489457623 0.0400241356 0.0746106636
1.0670392598 0.0058063661 -0.0742088982
0.9770217435 0.1171328704 -0.0751712238
0.8465699623 0.0614918091 -0.0641480316
0.9519622357 -0.0488739847 -0.0770304168
0.9795727495 0.1388773489 0.0111953597
0.9229829247 0.0015751651 -0.0474297557
0.8958059092 0.0285136561 0.0562608823
0.7770843729 0.0193597077 -0.0607164485
0.9482309122 -0.1154060909 -0.0063064650
0.9287307487 -0.0253643603 -0.0350875862
1.1058906439 -0.1097554847 0.1431760510
0.8090454285 0.0854088944 -0.0583488394
0.7942377000 -0.0437879454 0.0095183228
0.8985033923 -0.0268322307 0.0614591602
0.9185756499 0.0060163506 0.0996677054
0.8425507561 -0.0330278948 -0.0606806871
0.8899008173 0.1064660600 0.0434667714
0.9296854412 -0.0323138333 -0.0088513278
1.0788433927 0.0953550796 0.1476366172
0.8239382259 0.0471909774 -0.0641786076
1.1512468824 0.0329110146 0.0442736432
0.9124746428 0.1200919467 0.1325319428
0.9119003217 0.0479375751 -0.0169163189
0.8802221382 -0.0816070241 0.0645604739
0.8460591756 0.0267882060 -0.0603359506
1.0386051161 0.0666919410 0.1469598410
1.0536260073 0.1521164328 0.1316900602
0.9463907999 0.1240008413 -0.0685900922
0.8193534163 0.0372267562 -0.0641808192
0.8870247296 0.1129981696 0.0707243304
0.9202511196 0.0827648583 0.1438234702
1.0077022741 0.1454775150 -0.0538968668
1.1148128612 -0.1146716626 -0.0308430825
0.9242953465 -0.0107617762 0.1528615178
1.0238784178 -0.0148558090 0.1469153654
0.9938111091 -0.0156084157 0.1463545886
0.7809735868 0.0814786386 -0.0336311680
1.0099916706 0.0708032356 -0.0751803444
1.1428082234 -0.0980735915 0.1508018533
0.7995171959 0.0696807749 -0.0642027694
0.9993294711 0.1434795279 0.0044054881
0.8174016308 -0.1586778888 0.0204187008
1.1737798217 -0.0563607719 -0.0640924173
1.1819540316 -0.0993853338 -0.0332696604
0.7721314179 0.0551163888 0.0073129595
0.9018345203 0.0553675125 0.0372621084
0.9357637021 0.0417984779 0.1445747716
1.1519275883 0.0386422981 -0.0394438180
0.9926032760 0.0989126330 -0.0754425160
1.0298022273 -0.1335115407 -0.0244798114
1.0789609454 0.0516752148 -0.0737285437
1.1376475642 0.0857840430 0.1194569030
1.0047433007 -0.1370165165 0.0804553330
1.0142225849 0.0255590247 0.1469285868
0.9094084386 0.0075380943 0.1483487323
0.9402970032 -0.0879209107 0.0238393878
0.8147014576 -0.1472374308 0.0066940420
0.9211182947 -0.0211513289 0.0310444125
0.8213868030 -0.0237930382 -0.0611077481
0.8886120292 0.1049048943 0.0720972994
1.1431500493 0.0808315734 -0.0678756983
0.9873725271 -0.0583176167 -0.0762840857
1.1249673853 -0.1095093647 0.0967070199
1.1436895871 0.0294802953 0.1536042447
0.8137532415 -0.1279702555 -0.0544307439
0.9819259674 -0.1403940929 0.1186991046
0.9386745470 -0.0711707967 -0.0213237115
1.0540536962 -0.1261990873 0.0766228128
1.1737200881 -0.0754943328 0.1213458922
0.9105007947 -0.0881162910 0.0614453611
1.0866464622 -0.0715193009 0.1468735668
0.9347338993 -0.0865102804 0.1326419469
0.9451377406 -0.1121024205 0.0951311901
0.9183565994 -0.1439263868 0.0912405555
1.1053712925 0.1660882934 0.0327190335
0.9057535921 -0.1499177139 0.1193503865
0.8984469406 -0.0720131730 -0.0596245163
0.8680833147 -0.1566916858 0.0186414461
0.8662466718 0.0053081867 -0.0599878136
1.1742239689 -0.0738171753 0.0837754796
0.9599082146 0.1159140040 -0.0745080723
0.9572672710 -0.1462229866 0.1110962228
0.8670167746 -0.1589815225 0.0090787066
1.0229034975 -0.1318777308 0.1052511807
0.8989108301 0.0588754296 0.0563560245
0.9112867106 0.0382105721 0.1028296415
1.0419453379 0.1178223774 -0.0742522128
1.0389369709 0.1522453770 0.0095456175
1.1666839147 -0.0470548492 0.1486722113
1.0100264198 -0.1352349716 0.0941005734
0.8670100879 -0.0242900030 0.0835145320
1.0441435755 0.1466218761 0.0470556693
1.0317120694 0.0826680293 0.1465546476
1.0589765989 0.0300453347 0.1480221562
0.8779554432 -0.1565559473 -0.0013224052
0.8711555692 0.1050691374 0.0731264077
0.8620635447 -0.0813497936 -0.0604724851
0.9125360036 -0.1082937881 0.0560019677
1.1623989730 -0.0079249970 -0.0413010770
0.9116357353 -0.1051264562 -0.0640244605
1.1209945815 -0.0487230710 -0.0732456207
1.0410467150 0.1531638583 -0.0087585479
0.9503407354 -0.1269203006 0.0133475541
0.9204667445 -0.1425084457 -0.0565639486
0.8043999238 -0.0877600466 -0.0174266649
0.7896590816 -0.0367018827 -0.0541684004
0.7816342933 0.0120658381 0.0175932467
0.7726961895 0.0540569156 -0.0221855521
0.8449263818 0.0687764962 0.0553285127
0.8568125444 -0.0074437579 0.0889678198
0.8853484091 -0.1324386340 -0.0601910856
0.9863813661 -0.1127158814 0.1535107651
1.0940937678 0.1642517065 0.0241515242
0.8972596251 -0.1488644458 0.1142076273
1.0985135920 0.0976523627 -0.0730753786
0.9826154529 -0.1441641913 -0.0290636872
0.9347370822 -0.0565205998 0.1467722070
0.8382905086 -0.1678426191 -0.0510421456
1.1728803334 -0.0973055065 -0.0584267885
1.1329737704 0.1115812883 0.0723440579
1.1056896902 0.0814211139 0.1484589383
0.8948834426 -0.1499486714 -0.0395994277
1.0700679056 -0.0647485627 0.1465941031
0.9548440082 0.0634058696 0.1447762340
1.1701822423 -0.0569685018 0.0952565431
1.0980616796 -0.0520817365 -0.0737769162
1.1671622269 -0.0465817084 0.1249079573
0.8894498671 0.1049663537 0.0532155253
1.1242999350 0.1564468504 0.0137197576
0.9212061815 -0.1366299382 0.0614963777
0.9935634145 -0.0766225337 0.1448948384
1.1635597324 -0.0301418816 0.1215084319
0.8956840645 0.0795905557 0.0460419756
0.9047484398 0.0798770236 -0.0170300921
0.8337475041 -0.0765278008 -0.0610755160
0.8416054318 -0.1618829548 0.0123807711
0.8803871174 0.0420784761 0.0613705690
0.8054982161 -0.0813171360 -0.0617987321
0.9415338046 -0.1258258835 0.0480179430
0.9488785486 -0.1158047444 -0.0303319269
0.9514889497 -0.1286469089 -0.0191517815
0.7848227702 0.0867902723 -0.0297154792
1.1743878274 -0.0783130492 0.1198020948
0.8674043274 -0.0242194931 0.0611608365
0.7995624697 -0.0603932642 -0.0640489230
1.1050522750 0.1635803045 0.1336573271
0.8250532515 -0.1027691240 -0.0641097065
0.8023826881 -0.0899782670 0.0309628477
0.9168585111 -0.1444470267 0.1136253415
0.8026065833 0.0863278171 -0.0042953665
0.9607796717 0.0860452506 0.1447598700
0.7862942010 0.0826693625 -0.0319572002
0.9939041793 -0.0123320684 0.1464389040
0.8927804035 0.0906510795 0.0514045517
0.8858412338 -0.0310278111 -0.0597183177
0.9735578729 0.0017570585 -0.0763203481
0.9004457199 -0.1516898407 -0.0102664096
0.8522384052 0.0144228365 0.1041153259
0.8932095154 0.1175038009 0.0982602530
0.9888929464 -0.1421566004 -0.0555940732
0.8709144931 -0.1584712818 -0.0159949870
1.1668102511 -0.0513716090 -0.0722347919
1.1029773104 0.1031413210 -0.0729504356
0.8872810987 0.0345759509 -0.0593879571
1.0548336705 -0.0339849968 -0.0746603776
0.9954852396 0.1207749876 0.1551084127
0.8887948721 0.1049634513 0.0924121972
0.8521146865 0.0359690078 0.1219824641
0.9347202481 0.1222631564 0.1424342062
1.1673152480 -0.0873718558 0.1551250545
0.8411623580 -0.0433807323 -0.0641518777
0.9669421582 0.1101537211 -0.0758927530
0.9463683147 -0.1356222151 0.1274398669
1.1165618978 -0.0721066711 0.1475343531
1.1311722035 0.1305255386 -0.0317797101
0.8812402905 -0.0948654936 0.1244837657
0.8042173403 -0.0685828230 -0.0640615515
0.7810047813 0.0181859915 -0.0539140696
0.7991412278 -0.0776565339 0.0113170414
1.0764854209 -0.0837744641 -0.0744067883
0.8017037535 -0.0893969111 -0.0013392588
0.9406813662 -0.0848747539 0.1527751909
1.0592979934 0.0170536198 0.1480679456
0.9360268684 -0.1447158669 -0.0514364037
0.8856172667 -0.1103765638 0.1093896924
0.9088249511 -0.0236691199 -0.0640041104
0.7807895549 0.0034219811 -0.0284307166
0.8542358397 0.0236601083 0.1315421522
0.8789757613 -0.1473673312 -0.0595498156
0.9236784255 0.1256834180 0.0278863626
0.8560482976 0.0578482981 -0.0599719054
1.1440796012 -0.0589419322 0.1482193524
0.8156716101 -0.1399797128 0.0197593530
0.8819101053 -0.0258551910 0.0557035747
1.0522855811 0.0767774414 0.1471778745
0.8554886506 -0.0006358303 0.0813490343
0.8956420841 -0.0889573441 0.0557162076
0.8914552558 0.0352325222 0.0615843268
1.1038791675 -0.1171099956 -0.0306655287
1.0070541329 0.1446032184 0.0645593387
0.9064669686 -0.1465978856 0.0912012271
1.0785665284 -0.1230029719 -0.0514573790
1.1353421183 0.0962073016 0.1182264060
0.7673373205 0.0627372250 -0.0630342324
1.0582530120 -0.0050679160 -0.0744536028
0.9473150211 0.0213522290 -0.0768137622
1.0371491492 0.1223171542 -0.0743277354
0.8404501412 -0.1479813972 -0.0612344625
0.8862217554 0.1127151242 0.1022288929
1.0400524237 0.0734300376 -0.0744959979
0.8728018521 -0.0525289618 0.1053831243
1.0409763590 -0.1300803574 0.0128170251
0.7748226580 0.0456523998 -0.0483676194
0.8928341593 0.1008141398 -0.0631966445
0.8571874669 -0.0082494678 0.0790108144
0.9436055517 -0.1250762492 -0.0720057328
1.0822948110 -0.1212915278 -0.0046053078
0.7963870264 -0.0662119053 -0.0257508734
1.0980931762 -0.1139309670 0.1307696478
0.9234077608 -0.0358238926 -0.0744746443
0.9342026456 -0.0500501446 -0.0326165944
0.9760554093 0.0159732206 -0.0761982901
1.1472745660 0.0412842917 0.1339645606
1.0156901426 0.1458928626 0.0295999935
1.0663924719 0.1566807694 0.0944590873
0.9666708680 -0.0289767408 0.1455299821
1.0154439289 -0.1355842555 -0.0563190995
0.9335424976 -0.1046334659 0.1506754979
0.8913179515 0.1062107925 0.0092415014
0.9653938064 -0.0372752950 -0.0766795142
1.0318056554 -0.0269757873 0.1467582707
1.0522033364 0.0661788149 0.1473273392
1.1529634738 0.0293973806 0.0046534449
0.9359335613 -0.0965822920 0.0365578783
0.8612179834 0.1028034261 0.0741446897
0.9250890419 -0.1454835151 0.1172875002
0.8893310057 0.1098141586 -0.0394896604
0.8386419804 -0.1022666230 -0.0641243237
0.9981333581 0.1427347229 0.0235372321
0.7773592263 0.0196063465 0.0110299476
1.0828956940 -0.0907706327 0.1551016410
0.9574054353 0.1327659842 0.0804444070
1.1639333174 -0.1034161157 -0.0193933218
0.9356014914 -0.0569637569 -0.0261106815
0.8860416281 -0.1322184018 0.1207434568
0.9577216860 0.1310387345 0.1213748033
0.8980045680 0.0876973391 0.0289200058
0.8059589991 -0.0404349259 -0.0299398898
0.9231430858 -0.1106262782 -0.0639949488
1.1304981970 0.1337849745 -0.0341654402
0.8716957619 -0.1333587669 -0.0640956629
1.0480946488 0.1541858610 0.0142079087
0.7753909601 0.0843838274 -0.0047415894
0.8468951002 -0.0296303570 0.0854432082
1.0294058398 -0.1118063808 -0.0749721226
1.1276206937 0.0355683399 0.1485714629
1.1324497990 0.1184355458 0.0291761044
1.1338540968 0.1029774411 0.1170307214
1.1376221728 0.0831678645 0.1449710121
0.9440577565 -0.1439538613 0.1126210519
0.8737979457 0.0901983932 -0.0593930834
0.9219621522 -0.1199169470 0.0615624040
0.7866732891 -0.0223272420 -0.0040349592
1.1312756889 0.1136453487 0.1251393291
0.9978513502 -0.1353473103 0.1360923804
0.8838526488 0.1027160485 0.0618884037
1.1090787969 -0.1158253189 -0.0255596715
0.9306514000 -0.0589277045 0.1218220403
1.1521972134 0.0230993413 0.0976094411
0.8899971322 0.1030717634 0.1383881955
0.8760082318 0.1064728912 -0.0307599805
1.1452803271 0.0606033454 0.0342443985
1.1476782858 -0.1072189709 -0.0263220692
1.0460921639 -0.0035229584 0.1475993740
0.8067639390 0.0872484999 -0.0251840976
0.9271683262 -0.1460457916 0.0726150529
0.9126288488 0.0467466410 -0.0369802505
0.8531906998 0.0103670308 0.0833808528
0.8238452074 -0.1657704462 -0.0177469871
1.0519413695 0.0250465370 0.1479150243
1.0010238457 0.1448001581 -0.0350714896
1.1209736806 0.1621929088 0.1009245165
0.9349733976 -0.0088744754 0.1452655879
1.1695554910 -0.0374681535 -0.0642872217
0.9744344412 0.1390400636 -0.0444887009
1.0704560971 0.1605527783 -0.0428069640
0.8190970392 0.0426794250 -0.0608536684
0.9471251998 -0.0650720221 0.1443124162
1.1261815307 0.1358680914 0.1301315374
0.9509695032 -0.1289287553 0.0055733179
1.0444213257 -0.1264316277 0.1196764127
1.1399989598 -0.0621202880 -0.0728828828
1.1144751861 0.0407578163 -0.0729853672
0.9135765599 0.0384168046 0.0027913849
0.9255025579 -0.1430873439 -0.0186795676
0.8522238477 -0.0959970845 -0.0607516376
0.8011292207 0.0186977217 -0.0613664912
1.1728503327 -0.0528438749 -0.0580100094
0.9062050688 0.1237005663 -0.0433989767
0.9766924628 -0.1349235893 0.1478000302
0.9280269908 -0.1073159455 -0.0591262724
0.9121079947 -0.0776100420 -0.0593483402
1.0406322467 -0.1179043653 -0.0710759886
0.9335537009 0.1195592391 0.1476506703
1.0477655627 0.1525826565 0.0325607076
0.8449737684 0.0497117731 0.1194974982
1.1676974017 -0.1026006860 -0.0204452384
1.1052999744 0.0697354473 -0.0730532059
0.8142550605 -0.1309599357 -0.0357110598
0.8745029243 0.0310043891 0.0611887000
1.0523791890 0.0671410584 -0.0742508903
0.8234840497 -0.1246085012 -0.0640949666
0.8240535417 -0.0569639527 -0.0641448039
0.8672897257 -0.0269636966 0.0971020595
0.9271333476 -0.1211682075 0.0562684895
0.8986346722 0.0506461480 -0.0640020069
0.9390243841 -0.0841437112 0.0888787305
0.8248979506 -0.0929201122 -0.0641153033
1.0425702047 -0.1022256004 -0.0752290457
0.9467005749 0.0362697005 0.1449539244
1.0151588665 -0.0623692581 -0.0756777036
0.7778833995 0.0848808413 -0.0068370047
0.9140032170 -0.1449158818 0.0690299194
0.9400077518 -0.0816259230 0.0196030079
0.7893478681 -0.0191196188 -0.0584625537
0.8563938310 0.0190915453 0.1143985409
1.1354463088 0.1093132388 -0.0115190690
0.9087698877 -0.1273105984 0.0558348232
0.7749463945 0.0300419817 -0.0032812977
0.7916398357 0.0644297289 -0.0642016761
1.0090305564 0.1456412751 0.0050469541
1.0569493265 0.0157781528 -0.0743881252
0.8931320636 0.0373569689 0.0562425760
1.1655672980 -0.0327749890 0.0609216342
0.7874205681 -0.0118333966 -0.0194925067
1.1333633069 0.1230542446 -0.0538835880
0.8743882934 0.0480577949 -0.0640952808
0.8824988887 -0.1527009751 -0.0112352311
1.1478499127 0.0564891056 -0.0359922775
1.0920669850 0.1629244256 0.0837956502
0.9710683154 0.1382262896 -0.0417834241
1.0905039209 -0.0177579493 0.1480279144
1.1531615704 0.0309877489 -0.0190054942
0.8980627622 -0.1499171094 0.0578544741
1.1056935932 0.1437453507 0.1578451026
1.1763293868 -0.0856696955 0.1072687050
1.1711936637 -0.0529161876 0.0133934464
1.0805028991 -0.0607227432 -0.0742100909
1.0919027411 -0.1148376371 0.1360233638
1.0525510390 0.1531542193 0.0333294078
1.1448735070 -0.1058036623 0.0803011557
0.8801269322 0.0128066823 0.0612302226
1.1295243619 0.0275442473 0.1485755008
1.1187283235 0.1092012495 0.1484611378
0.7690893105 0.0691876412 -0.0013163346
0.9281340614 -0.0567766356 -0.0740869650
